# .PCD v0.7 - Point Cloud Data file format
VERSION 0.7
FIELDS x y z rgba
SIZE 4 4 4 4
TYPE F F F U
COUNT 1 1 1 1
WIDTH 1090
HEIGHT 1
VIEWPOINT 0 0 0 1 0 0 0
POINTS 1090
DATA ascii
0.57820743 -3.9892201 -1.5246701 1084227584
0.4580445 -4.5059381 -0.48369059 1102053376
0.57378674 -4.0006461 -1.4085815 1096810496
-1.4841682 -12.912273 1.6489528 1109655552
0.55348319 -4.0781269 -1.2932572 1082130432
-1.48879 -12.903253 2.1098545 1115947008
0.71198028 -3.3592055 -1.9525694 1065353216
0.53480333 -4.1107349 -1.1732545 1125646336
0.61621398 -3.7611637 -1.9484645 1077936128
0.51938289 -4.1684403 -1.0493474 1124532224
0.47387114 -4.3564253 -1.9544464 1065353216
0.51544476 -4.1771302 -0.92521298 1093664768
0.26122823 -5.249198 -1.9663091 1065353216
0.50277919 -4.2200274 -0.79532778 1065353216
0.52593029 -4.1194301 -1.6591377 1065353216
0.45217139 -4.4255724 -0.6347388 1065353216
0.55190831 -3.9994459 -1.5260646 1084227584
0.42975408 -4.5114202 -0.48140094 1102053376
0.54970098 -4.0011616 -1.4088955 1092616192
-1.7852941 -13.800424 1.8644558 1109917696
0.53082389 -4.0728078 -1.2932572 1082130432
-1.7893472 -13.787148 2.3588386 1111228416
0.69647604 -3.3436043 -1.9494635 1065353216
0.50804585 -4.1187525 -1.1730101 1126039552
0.59610206 -3.7523637 -1.9475647 1077936128
0.49692428 -4.1569195 -1.0496614 1123811328
0.45332193 -4.3313265 -1.9506302 1065353216
0.4915143 -4.1714048 -0.92521298 1091567616
0.22981983 -5.2416711 -1.9663091 1065353216
0.47008908 -4.2489281 -0.79094052 1065353216
0.50240237 -4.1137791 -1.6591377 1065353216
0.41994566 -4.4462647 -0.63035864 1065353216
0.52732372 -4.00172 -1.5267619 1084227584
0.39789027 -4.5279713 -0.47682151 1101529088
0.52557135 -4.0014987 -1.4092095 1092616192
-1.7327557 -13.193613 1.7254361 1096810496
0.5028491 -4.0866108 -1.2936063 1082130432
-1.7436593 -13.209839 2.2056177 1109917696
0.67649394 -3.3466616 -1.951534 1073741824
0.48258844 -4.1207371 -1.1728705 1126367232
0.5723052 -3.7585559 -1.9502641 1077936128
0.4716835 -4.156878 -1.0493474 1124335616
0.42259908 -4.3480182 -1.9552096 1065353216
0.46230146 -4.1867723 -0.92329556 1091567616
0.19846436 -5.2339253 -1.9663091 1065353216
0.45242727 -4.215929 -0.79435283 1065353216
0.45472434 -4.2042255 -1.6713247 1065353216
0.39799565 -4.4245405 -0.63286155 1065353216
0.50169605 -4.0076733 -1.5278078 1086324736
0.36767191 -4.5366454 -0.47376856 1100480512
0.49797565 -4.0152121 -1.4102563 1090519040
-1.9744203 -13.784083 1.8712045 1107558400
0.48004183 -4.0788612 -1.2935714 1120403456
-1.9858369 -13.800463 2.3748851 1116078080
0.6583572 -3.3420804 -1.951534 1065353216
0.45855537 -4.1167202 -1.1728356 1123811328
0.55420446 -3.7419128 -1.9475647 1077936128
0.40237513 -4.322628 -1.9513935 1065353216
0.43880245 -4.1787457 -0.9234699 1091567616
0.18000257 -5.1762328 -1.9581746 1065353216
0.3964262 -4.3327641 -0.77875358 1065353216
0.42066202 -4.2365112 -1.6761994 1065353216
0.36044964 -4.4638824 -0.62535268 1065353216
0.4799498 -3.9979987 -1.5274591 1086324736
0.33580783 -4.5507817 -0.46957073 1102053376
0.47366822 -4.0151672 -1.4105703 1090519040
-2.0727239 -13.789029 1.8779529 1108344832
0.45175555 -4.0922413 -1.2939204 1120403456
-2.0778649 -13.78078 2.3759205 1116078080
0.63926792 -3.3411086 -1.9525694 1073741824
0.53032333 -3.7477722 -1.9502641 1077936128
0.36636549 -4.3578591 -1.959789 1065353216
0.41128698 -4.1859655 -0.92224967 1093664768
0.14606245 -5.179595 -1.9600518 1065353216
0.40142551 -4.2109394 -1.6737621 1065353216
0.33045074 -4.4723372 -0.62284976 1065353216
0.45418757 -4.0035796 -1.528505 1086324736
0.30977982 -4.5418963 -0.46995232 1096810496
0.44828859 -4.0188012 -1.4110936 1088421888
-2.1712584 -13.793236 1.8847016 1108344832
0.42479539 -4.0995936 -1.2941648 1120403456
-2.17629 -13.784701 2.3836851 1116733440
0.62015939 -3.3399966 -1.9536046 1073741824
0.40162504 -4.1409793 -1.1721724 1091567616
0.5129683 -3.7289975 -1.9471147 1084227584
0.38838446 -4.1826129 -1.04694 1097859072
0.34840456 -4.3245702 -1.9544464 1065353216
0.38415173 -4.1910458 -0.92120385 1091567616
0.10473403 -5.2093778 -1.9663091 1065353216
0.38250196 -4.1852703 -1.6713247 1065353216
0.29088911 -4.5148458 -0.61471516 1065353216
0.42725217 -4.0128012 -1.5298995 1086324736
0.2775889 -4.5555506 -0.4657546 1086324736
0.42493561 -4.0145359 -1.4111983 1088421888
-2.271569 -13.802337 1.8927997 1108869120
0.40034559 -4.0970926 -1.2942345 1120403456
-2.2769923 -13.795334 2.3935201 1116078080
0.60103321 -3.3387442 -1.9546399 1073741824
0.37633702 -4.1402378 -1.1720678 1096810496
0.49269074 -3.7213881 -1.9466648 1077936128
0.36549488 -4.1721525 -1.0471493 1095761920
0.32027215 -4.3290176 -1.9567361 1065353216
0.35313767 -4.209343 -0.91893774 1091567616
0.090686522 -5.1398988 -1.9562974 1065353216
0.16041438 -4.8858809 -0.70563191 1073741824
0.374639 -4.1212869 -1.6640126 1065353216
0.27424365 -4.4733186 -0.62034684 1065353216
0.39798281 -4.0294752 -1.5319912 1086324736
-2.3750517 -13.855776 1.4140958 1097859072
0.40051359 -4.0139484 -1.4115123 1088421888
-2.3647485 -13.784421 1.8945996 1109393408
0.37588745 -4.0944133 -1.2943044 1120403456
-2.3774846 -13.803333 2.4028375 1116078080
0.58295369 -3.333636 -1.9546399 1073741824
0.34991208 -4.1431537 -1.1718932 1088421888
0.46710655 -3.7323737 -1.950714 1084227584
0.34380856 -4.1577015 -1.047568 1097859072
0.29962721 -4.3068318 -1.9536831 1065353216
0.32788405 -4.2063122 -0.91858917 1091567616
0.053481244 -5.1539617 -1.9600518 1065353216
0.25592697 -4.4466147 -0.76071692 1073741824
0.33458105 -4.1717949 -1.6713247 1065353216
0.24934825 -4.4621067 -0.62097257 1065353216
0.37286979 -4.0305882 -1.5326885 1086324736
-2.479593 -13.874892 1.4232546 1105199104
0.37327391 -4.0227699 -1.4123497 1088421888
-2.4632907 -13.784553 1.9008981 1108869120
0.34974736 -4.0973167 -1.2944789 1120403456
-2.4750249 -13.799437 2.4090493 1115422720
0.56491035 -3.3284023 -1.9546399 1073741824
0.32057828 -4.1554565 -1.1715442 1088421888
0.45178625 -3.7076273 -1.9462149 1084227584
0.31606451 -4.1641884 -1.0468353 1093664768
0.2714617 -4.3108935 -1.9559729 1065353216
0.30149707 -4.2069197 -0.91789192 1091567616
0.022742791 -5.1449876 -1.9600518 1065353216
0.23575778 -4.4200368 -0.76315427 1073741824
0.29997638 -4.2009692 -1.6759558 1065353216
0.21781644 -4.473454 -0.61784387 1065353216
0.35110521 -4.0221305 -1.5325142 1084227584
-2.5756278 -13.863076 1.4263076 1101529088
0.3475756 -4.0256267 -1.412873 1088421888
-2.5619619 -13.79209 1.9089962 1108869120
0.32009196 -4.111515 -1.2948629 1119748096
-2.5710335 -13.789259 2.4137082 1113063424
0.54578882 -3.3267419 -1.9556752 1073741824
0.29681998 -4.1504645 -1.1715093 1088421888
0.42550057 -3.7201235 -1.950714 1084227584
0.28531277 -4.1821051 -1.0454745 1093664768
0.2460871 -4.3074074 -1.9567361 1065353216
0.27563083 -4.20542 -0.91736895 1091567616
0.084533498 -4.8335657 -1.9099927 1077936128
0.19002078 -4.4809289 -0.75437969 1073741824
0.28627554 -4.1595507 -1.6715684 1077936128
0.18442701 -4.4922996 -0.6134637 1065353216
0.32477841 -4.0266972 -1.53356 1084227584
-2.6711113 -13.84868 1.4289788 1101529088
0.32003275 -4.0360999 -1.413815 1088421888
-2.6597726 -13.787013 1.914395 1109393408
0.29370034 -4.1139884 -1.2950374 1119485952
-2.6659408 -13.782766 2.4194019 1099956224
0.53166461 -3.3103127 -1.9525694 1065353216
0.27071795 -4.1508546 -1.1713697 1088421888
0.40873778 -3.7027717 -1.9480145 1084227584
0.25603291 -4.1919422 -1.0445325 1093664768
0.21892715 -4.3072982 -1.9582626 1065353216
0.24502268 -4.2210402 -0.91527724 1091567616
0.086518764 -4.7267246 -1.8937235 1077936128
0.18521181 -4.4046888 -0.76315427 1073741824
0.21172208 -4.3173046 -1.6927737 1073741824
0.14478104 -4.5276299 -0.60626769 1086324736
0.2965599 -4.0367613 -1.5351288 1120403456
-2.7719073 -13.858665 1.4366113 1103101952
0.29768783 -4.0271072 -1.4137104 1086324736
-2.7600327 -13.788641 1.9215935 1109393408
0.26482394 -4.1259823 -1.2953864 1119092736
0.51495159 -3.3010378 -1.951534 1065353216
0.24093485 -4.1624837 -1.1710206 1088421888
0.39047813 -3.6888821 -1.9462149 1084227584
0.23261006 -4.1825018 -1.0446372 1091567616
0.19409513 -4.299499 -1.9582626 1065353216
0.21596067 -4.2286148 -0.91388273 1088421888
0.079143666 -4.653996 -1.883086 1077936128
0.13799061 -4.4647374 -0.75437969 1073741824
0.20190513 -4.262176 -1.6866802 1084227584
-2.8654776 -13.860054 0.94681394 1088421888
0.27057981 -4.0389991 -1.5360004 1120403456
-2.8705289 -13.852191 1.4411906 1102053376
0.26932552 -4.036983 -1.4146525 1084227584
-2.8581278 -13.782081 1.9269923 1109393408
0.24125674 -4.1185079 -1.2953864 1120403456
-2.5437548 -12.780439 2.153336 1086324736
0.49594554 -3.2990053 -1.9525694 1073741824
0.21093895 -4.1738615 -1.1706716 1088421888
0.36634693 -3.6934164 -1.9489143 1084227584
0.20185444 -4.195694 -1.0434858 1091567616
0.17539658 -4.2728591 -1.9544464 1065353216
0.18550596 -4.2397408 -0.91213959 1086324736
0.073948018 -4.5776048 -1.8718227 1077936128
0.11206109 -4.4563694 -0.75437969 1073741824
0.033723589 -4.6939077 -1.7434714 1084227584
-2.9636796 -13.851142 0.95025551 1090519040
0.243899 -4.0429277 -1.5370463 1120403456
-2.9723141 -13.854308 1.4476782 1099956224
0.24513425 -4.0333381 -1.4148618 1084227584
-2.9551117 -13.771084 1.9314913 1108869120
0.21649319 -4.1146693 -1.2954563 1118961664
-2.6318989 -12.765992 2.1569595 1090519040
0.48179853 -3.2821641 -1.9494635 1073741824
0.18136199 -4.1830883 -1.1703573 1086324736
0.34456715 -3.6903598 -1.9498142 1084227584
0.16959949 -4.2124133 -1.0421251 1093664768
0.13963062 -4.2982821 -1.9613155 1065353216
0.15862517 -4.2392702 -0.9114424 1086324736
0.059745979 -4.5313129 -1.8655653 1077936128
0.15418753 -4.2424064 -1.6861928 1065353216
-3.0669816 -13.85648 0.9562 1086324736
0.22091191 -4.0353093 -1.5370463 1120403456
-3.073086 -13.851915 1.4534024 1098907648
0.21203952 -4.0560212 -1.4165366 1120403456
-3.0571141 -13.774143 1.9395896 1108869120
0.19300638 -4.1068578 -1.2954563 1118961664
-2.7212651 -12.754562 2.1616185 1094713344
0.46038783 -3.2872002 -1.9525694 1073741824
0.15417837 -4.1844964 -1.1701828 1086324736
0.32089961 -3.692677 -1.9520637 1084227584
0.13705717 -4.2288489 -1.0407643 1093664768
0.11993425 -4.2750645 -1.9582626 1065353216
0.12783353 -4.2499075 -0.90969926 1086324736
0.032076892 -4.5261364 -1.866191 1065353216
-4.3050861 -17.199743 0.90158117 1073741824
0.12595338 -4.2454257 -1.6876552 1065353216
-3.1692841 -13.857276 0.96151865 1086324736
0.19079687 -4.0503435 -1.5391381 1115815936
-3.1740332 -13.848755 1.4591266 1099956224
0.18441789 -4.0614023 -1.4172692 1120403456
-3.1558278 -13.773508 1.946788 1109393408
0.16306522 -4.1177907 -1.2958053 1118437376
-2.8125503 -12.747948 2.1678298 1094713344
0.44013479 -3.2884109 -1.9546399 1073741824
0.12489206 -4.1934552 -1.1698687 1084227584
0.30740413 -3.6653607 -1.9471147 1084227584
0.11206686 -4.2244635 -1.040555 1084227584
0.11016701 -4.2260075 -1.949867 1065353216
0.088956177 -4.2828569 -0.90586442 1077936128
0.0063798353 -4.5172572 -1.866191 1077936128
-3.6790602 -15.051143 0.62713134 1065353216
0.090403885 -4.2688298 -1.6917988 1073741824
-3.269526 -13.858084 0.96683753 1086324736
0.14929707 -4.0949979 -1.5440187 1105723392
-3.2757988 -13.846674 1.4652327 1099956224
0.15989476 -4.0592246 -1.4175832 1120403456
-3.2595952 -13.778686 1.9557861 1108869120
0.1329169 -4.1284685 -1.2961544 1117913088
-2.9069841 -12.755958 2.1781826 1096810496
0.42026636 -3.2896199 -1.9567105 1073741824
0.091477461 -4.21138 -1.1693801 1084227584
0.28494698 -3.6657197 -1.9489143 1084227584
0.040902846 -4.3476233 -1.0332279 1073741824
0.068760261 -4.2655301 -1.959789 1065353216
0.024741938 -4.3869619 -0.89540571 1065353216
-0.021241715 -4.5116901 -1.8668169 1077936128
-3.4392653 -14.066323 0.50331211 1065353216
0.052463192 -4.297514 -1.6966735 1073741824
-3.3702736 -13.851734 0.97121775 1086324736
0.10913742 -4.1336045 -1.5483766 1120403456
-3.3797455 -13.849354 1.4724835 1100480512
0.13207032 -4.0641775 -1.418316 1119354880
-3.3570573 -13.76471 1.9602851 1109393408
0.10662641 -4.1275992 -1.296294 1112801280
-2.9998856 -12.751576 2.1854298 1099431936
0.40472999 -3.2758276 -1.9546399 1073741824
0.05707087 -4.2308841 -1.1688565 1084227584
0.26341778 -3.6600437 -1.9493643 1077936128
0.012432724 -4.3458586 -1.0328093 1086324736
0.049602292 -4.2419276 -1.9567361 1065353216
0.0041885874 -4.3626013 -0.89680022 1073741824
-0.052216478 -4.513103 -1.8686941 1077936128
-3.5553064 -14.09614 0.51159918 1065353216
-0.017313087 -4.4115925 -1.7127603 1073741824
-3.4707258 -13.836358 0.97434628 1086324736
0.067695998 -4.1736827 -1.5529087 1099956224
-3.4839511 -13.851218 1.4797341 1095761920
0.093901277 -4.0949368 -1.4205141 1113587712
-3.4666469 -13.782931 1.9728824 1109393408
0.084432326 -4.1152673 -1.2962241 1117913088
-3.0997005 -12.758401 2.1963 1099431936
0.39112848 -3.2584844 -1.951534 1073741824
0.030776914 -4.225481 -1.1687866 1077936128
0.24242446 -3.6543977 -1.9498142 1084227584
-0.022417091 -4.3628221 -1.0313438 1073741824
0.025993166 -4.2290421 -1.9559729 1065353216
-3.5914574 -13.930357 -0.0025823319 1082130432
-0.082622923 -4.5145102 -1.8705713 1077936128
-3.593045 -13.906542 0.49136874 1084227584
-0.056768123 -4.4393301 -1.717635 1077936128
-3.5786088 -13.84697 0.98185527 1090519040
0.040307935 -4.1741605 -1.5537802 1106247680
-3.589792 -13.855942 1.487748 1098907648
0.06073219 -4.1124496 -1.4219794 1104150528
-3.5698681 -13.782011 1.9809808 1109393408
0.05672387 -4.1177654 -1.2964336 1112539136
-3.2004552 -12.772431 2.2092412 1086324736
0.37361437 -3.2519131 -1.951534 1073741824
-0.005641683 -4.2502537 -1.1681584 1077936128
0.22076614 -3.6504223 -1.950714 1084227584
-0.046292037 -4.3517094 -1.0314485 1065353216
0.0023188756 -4.2201285 -1.9559729 1065353216
-4.6594028 -16.434219 0.82797205 1073741824
-0.088179685 -4.4444394 -1.7195849 1073741824
-3.6845837 -13.857587 0.98936403 1084227584
0.013563274 -4.1725612 -1.5544775 1096810496
-3.6896141 -13.843324 1.4923273 1095761920
0.027849922 -4.1298881 -1.4234449 1103101952
-3.6698217 -13.771187 1.9868294 1109393408
0.02318795 -4.1349754 -1.2969222 1111752704
-3.6790123 -13.774744 2.5058477 1115684864
0.35658288 -3.2453885 -1.951534 1073741824
-0.042349592 -4.2725878 -1.167565 1073741824
0.19750434 -3.6519332 -1.9529635 1077936128
-0.023321014 -4.2144794 -1.9567361 1065353216
-4.1004 -14.704458 0.076555111 1082130432
-0.35358134 -5.0581059 -1.9663091 1065353216
-0.12268599 -4.4587903 -1.7227536 1073741824
-3.788913 -13.85543 0.99499571 1084227584
-0.020467158 -4.1893158 -1.5569178 1120403456
-3.7893598 -13.836327 1.4980518 1097859072
-0.0073760017 -4.1505208 -1.4251196 1102053376
-3.7755449 -13.774117 1.9962772 1109917696
-0.010054829 -4.1521134 -1.2974108 1110704128
-3.7867649 -13.782668 2.5182707 1114898432
0.33490223 -3.2493567 -1.9546399 1073741824
-3.8157921 -13.743094 -0.98962027 1103101952
0.17007856 -3.6621213 -1.9574625 1077936128
-0.050392982 -4.2122917 -1.9582626 1065353216
-0.38364136 -5.0462918 -1.9663091 1065353216
-4.0361304 -14.231415 0.54815996 1065353216
-2.3476939 -9.9786911 -2.4534822 1065353216
-3.8941855 -13.85429 1.0009402 1090519040
-0.056269843 -4.2094617 -1.5597068 1108082688
-3.8951592 -13.836786 1.5056843 1095761920
-0.050355505 -4.1893759 -1.4278411 1100480512
-3.8779364 -13.767156 2.0034754 1109917696
-0.048641443 -4.1798568 -1.2981091 1109393408
-3.8955908 -13.791513 2.5312119 1115947008
0.31311953 -3.2531438 -1.9577457 1073741824
-3.913882 -13.725442 -0.98927122 1098907648
0.14683385 -3.6612251 -1.9592621 1065353216
-4.0729437 -14.099459 -0.47878078 1065353216
-0.059829809 -4.1662159 -1.9506302 1065353216
-0.39878187 -4.9976521 -1.9600518 1065353216
-4.9344049 -16.176712 0.81091034 1065353216
-0.8729983 -6.1599383 -1.950893 1065353216
-3.9892848 -13.826694 1.0025045 1086324736
-4.0078726 -13.852771 1.5167509 1095761920
-0.083396502 -4.2018971 -1.4290972 1099956224
-3.9834223 -13.766616 2.0124736 1109917696
-2.4209824 -9.9288044 -1.4066629 1103101952
-3.9960246 -13.778011 2.5379412 1115947008
0.30299273 -3.2281613 -1.9525694 1073741824
-4.0203509 -13.727393 -0.98853821 1107296256
0.13541998 -3.6313159 -1.9538633 1065353216
-4.1629877 -14.054071 -0.4791995 1065353216
-0.080674015 -4.1492152 -1.9491038 1065353216
-0.43143615 -4.9928265 -1.9613032 1065353216
-0.9016273 -6.1224613 -1.9479681 1065353216
-4.098618 -13.833083 1.0100135 1086324736
-4.1097741 -13.840617 1.5220937 1094713344
-2.8471365 -10.787846 -1.803404 1096810496
-4.0928917 -13.774234 2.0237212 1108869120
-2.4965165 -9.9301338 -1.4071865 1109393408
-4.0972681 -13.765522 2.545188 1114898432
0.28419796 -3.2245388 -1.9536046 1073741824
-4.1263251 -13.726645 -0.98784012 1107558400
0.11530934 -3.6229503 -1.9538633 1065353216
-0.1135345 -4.1610422 -1.9536831 1065353216
-0.47331411 -5.0095944 -1.9663091 1065353216
-0.94836754 -6.1287408 -1.950893 1065353216
-4.2113752 -13.845859 1.0187737 1086324736
-2.5732098 -9.9644299 -2.1091366 1073741824
-4.2140622 -13.833102 1.5285813 1094713344
-2.9295986 -10.787909 -1.8050786 1096810496
-4.1951308 -13.769361 2.0318193 1109393408
-2.5738113 -9.934536 -1.4077799 1095761920
-4.2016153 -13.759369 2.5545056 1112539136
0.25932679 -3.2349837 -1.958781 1073741824
-4.2287121 -13.722339 -0.98721182 1107558400
0.092188686 -3.6216099 -1.9556628 1065353216
-4.3475194 -13.98083 -0.47899017 1065353216
-0.13519512 -4.1475725 -1.95292 1065353216
-4.3169684 -13.884195 0.017289141 1082130432
-0.50229067 -4.9972644 -1.9663091 1065353216
-4.3102212 -13.849546 0.51769269 1077936128
-1.0078603 -6.1638031 -1.9577178 1065353216
-4.3168163 -13.845982 1.025344 1088421888
-2.6374681 -9.9369993 -2.1091366 1073741824
-4.3208413 -13.830177 1.5362135 1094713344
-1.1996075 -6.5924687 -1.5672641 1101004800
-4.3005972 -13.764503 2.0403676 1109393408
-1.1916904 -6.5629611 -1.3441833 1096810496
-4.3084741 -13.764011 2.5669291 1115947008
0.25013021 -3.2099719 -1.9536046 1073741824
-4.3383512 -13.727251 -0.98637414 1107558400
0.067970254 -3.6238778 -1.9583623 1065353216
-0.16047643 -4.1409025 -1.9536831 1065353216
-0.53192157 -4.9844136 -1.9663091 1065353216
-4.5194883 -14.078981 0.55376589 1065353216
-1.0223598 -6.0969038 -1.950893 1065353216
-4.4263878 -13.847888 1.03254 1086324736
-4.4263558 -13.829198 1.5442275 1094713344
-4.4047771 -13.761593 2.0493655 1109917696
-1.1820446 -6.4340768 -1.3420541 1101529088
-4.4194818 -13.770333 2.5803876 1114898432
0.2298224 -3.2094798 -1.9556752 1073741824
-4.4460645 -13.732268 -0.9855364 1107558400
0.047913544 -3.615042 -1.9583623 1065353216
-0.18354705 -4.130722 -1.9536831 1065353216
-0.56072551 -4.9716854 -1.9663091 1065353216
-4.6311417 -14.08603 0.56010318 1065353216
-1.0515575 -6.0622706 -1.9484556 1065353216
-4.5202689 -13.819266 1.0344173 1082130432
-4.5424266 -13.844281 1.5560578 1094713344
-4.5130429 -13.760403 2.0592635 1109917696
-4.5246186 -13.767946 2.591258 1114374144
0.21424709 -3.1982634 -1.9546399 1073741824
-4.55864 -13.734366 -0.98469871 1107820544
0.039178684 -3.5812156 -1.9520637 1065353216
-0.20610189 -4.1162753 -1.95292 1065353216
-0.59091115 -4.9580927 -1.9663091 1065353216
-1.0918999 -6.0527868 -1.9494306 1065353216
-4.638238 -13.83104 1.0438033 1086324736
-4.6532822 -13.845876 1.5652164 1094713344
-1.2086432 -6.2912631 -1.5530287 1065353216
-4.6223812 -13.760105 2.0696113 1109917696
-1.1921833 -6.2475986 -1.3391571 1065353216
-4.6289043 -13.750358 2.5985048 1113849856
0.20039216 -3.1834409 -1.9525694 1073741824
-4.6142502 -13.623206 -0.98605996 1103626240
0.014520104 -3.5827954 -1.9547631 1065353216
-0.21747182 -4.0808349 -1.9475772 1065353216
-0.61953402 -4.9449639 -1.9663091 1065353216
-1.1338961 -6.0465994 -1.950893 1065353216
-4.7504373 -13.840331 1.0525635 1082130432
-4.7569976 -13.830537 1.5709409 1094713344
-4.7344661 -13.764215 2.0813086 1109393408
-1.2018179 -6.1682696 -1.3379703 1077936128
-4.736865 -13.751564 2.6109283 1112539136
0.17890707 -3.1862323 -1.9556752 1073741824
-4.6351471 -13.434827 -0.98888725 1107296256
-0.0064125815 -3.5773463 -1.9556628 1065353216
-0.25241789 -4.0948634 -1.95292 1065353216
-0.64879721 -4.9312954 -1.9663091 1065353216
-1.169142 -6.0257239 -1.9504056 1073741824
-4.8653274 -13.847619 1.061324 1082130432
-4.8649898 -13.823258 1.5785731 1094713344
-1.1737429 -6.021153 -1.5394213 1065353216
-4.8435574 -13.760345 2.0912066 1109393408
-1.1684778 -6.0005465 -1.3350732 1101529088
-4.8498702 -13.756061 2.6249044 1113325568
0.16314447 -3.1744924 -1.9546399 1073741824
-4.7503252 -13.448842 -0.98780519 1098907648
-0.026635688 -3.5677564 -1.9556628 1065353216
-4.9778495 -13.901056 -0.46915093 1065353216
-0.27236122 -4.0766969 -1.9513935 1065353216
-5.0098562 -13.950123 0.047619443 1082130432
-0.67869234 -4.9170742 -1.9663091 1065353216
-4.9772167 -13.864461 0.55327845 1084227584
-1.1990563 -5.9938793 -1.9484556 1073741824
-4.9726205 -13.831477 1.0663298 1090519040
-1.2473836 -6.0872412 -1.7521467 1073741824
-4.9825473 -13.834563 1.5904034 1095761920
-1.1923364 -5.9635692 -1.5371186 1065353216
-4.9562774 -13.762608 2.1029038 1094713344
-1.1737924 -5.9181938 -1.3338166 1093664768
-4.9671869 -13.761991 2.6399159 1114636288
0.1462225 -3.1663315 -1.9546399 1073741824
-4.7850308 -13.289991 -0.99003911 1103101952
-0.053126935 -3.5722761 -1.9592621 1065353216
-5.0660305 -13.849563 -0.46956965 1065353216
-0.29270598 -4.0581341 -1.949867 1065353216
-0.68347347 -4.8533006 -1.9575489 1065353216
-1.2443544 -5.9939704 -1.950893 1073741824
-1.2284963 -5.954658 -1.7409908 1073741824
-5.1360102 -13.91713 1.6178797 1086324736
-1.1899718 -5.866991 -1.532513 1093664768
-1.1604369 -5.8001342 -1.331862 1095761920
-5.0826273 -13.768026 2.6549275 1113325568
0.13450149 -3.1476657 -1.951534 1073741824
-4.8915758 -13.291125 -0.98920143 1103101952
-0.06243214 -3.5416455 -1.9538633 1065353216
-0.32044834 -4.0576057 -1.9521568 1065353216
-0.70610404 -4.8289309 -1.9556715 1065353216
-1.2773844 -5.9688077 -1.949918 1065353216
-1.289691 -5.9866362 -1.7458714 1073741824
-5.2567344 -13.929683 1.6304733 1086324736
-1.2033525 -5.8068781 -1.5300009 1097859072
-1.1580826 -5.7075558 -1.3303959 1095761920
-5.1858115 -13.753488 2.6637273 1112539136
0.11297064 -3.1498678 -1.9546399 1073741824
-5.025815 -13.340281 -0.98738635 1090519040
-0.086691245 -3.5425858 -1.9565628 1065353216
-0.33289981 -4.0250201 -1.9475772 1065353216
-0.73633814 -4.8181863 -1.9562974 1065353216
-1.3164605 -5.958065 -1.950893 1065353216
-5.3587599 -13.909094 1.635816 1065353216
-1.2033339 -5.7196703 -1.5259187 1091567616
-1.1636834 -5.6352973 -1.3293139 1091567616
-5.2983727 -13.750765 2.6766682 1113325568
0.099745862 -3.1344805 -1.9525694 1073741824
-0.097279765 -3.5153339 -1.9520637 1065353216
-0.36113289 -4.0238519 -1.949867 1065353216
-0.7701382 -4.8142447 -1.9581746 1065353216
-1.3400474 -5.9148035 -1.9474807 1065353216
-5.4612985 -13.883053 1.6403953 1065353216
-1.1948838 -5.6185198 -1.5209991 1093664768
-1.1527119 -5.5307951 -1.3276036 1091567616
-5.4138799 -13.752247 2.6911621 1113325568
0.067028679 -3.1567123 -1.9618869 1073741824
-5.2010307 -13.250401 -0.98738635 1090519040
-0.12198623 -3.5157118 -1.9547631 1065353216
-0.39306945 -4.029408 -1.9536831 1065353216
-0.79848492 -4.7995286 -1.9581746 1065353216
-1.3668464 -5.8785009 -1.9450433 1065353216
-5.5711055 -13.870126 1.6480278 1100480512
-1.1935136 -5.5336428 -1.5170215 1091567616
-4.9399672 -12.653655 1.8725542 1073741824
-1.1543777 -5.4532294 -1.3264169 1094713344
-5.5324311 -13.757876 2.7072089 1112539136
0.061093498 -3.1274002 -1.9556752 1073741824
-5.3234763 -13.276361 -0.98599017 1090519040
-0.14128329 -3.5055521 -1.9547631 1065353216
-5.7070022 -13.982566 -0.44811192 1065353216
-0.40800318 -4.0037785 -1.9506302 1065353216
-0.83901805 -4.809402 -1.9625547 1065353216
-5.731576 -13.989748 0.60885096 1065353216
-1.3932693 -5.8420763 -1.942606 1073741824
-5.6829128 -13.859767 1.6564232 1100480512
-1.1921451 -5.4529881 -1.5132533 1091567616
-5.0468426 -12.654311 1.8842517 1086324736
-1.1456442 -5.3582473 -1.324881 1094713344
-5.6500254 -13.765401 2.7237732 1107296256
0.050416559 -3.1085479 -1.9525694 1073741824
-5.3044505 -13.032538 -0.98989952 1090519040
-0.16188061 -3.4989467 -1.9556628 1065353216
-5.7726569 -13.883958 -0.45104274 1065353216
-0.42696595 -3.9847019 -1.9491038 1065353216
-0.86356783 -4.7872562 -1.9613032 1065353216
-1.4259982 -5.8199739 -1.9421184 1084227584
-5.7710705 -13.810046 1.6560417 1091567616
-1.193465 -5.3774014 -1.5097992 1094713344
-5.1540313 -12.654056 1.895949 1082130432
-1.1444775 -5.2816143 -1.3236942 1092616192
-5.7536807 -13.740149 2.7310202 1102053376
0.03581487 -3.0962138 -1.951534 1073741824
-5.5708628 -13.315578 -0.9833374 1099431936
-0.1829353 -3.4919257 -1.9565628 1065353216
-5.9814987 -14.047671 -0.43827274 1065353216
-0.46466109 -3.999929 -1.9552096 1065353216
-0.88220048 -4.7545824 -1.9581746 1065353216
-1.4623089 -5.8023934 -1.9423622 1086324736
-5.8611474 -13.75848 1.65566 1106771968
-1.1899906 -5.2950373 -1.5059264 1092616192
-5.2615237 -12.652881 1.9076465 1073741824
-1.1431618 -5.204782 -1.3225075 1091567616
-5.8704247 -13.737745 2.7455139 1111228416
0.011919747 -3.1006665 -1.9556752 1073741824
-5.6798692 -13.305562 -0.98256946 1103626240
-0.1982668 -3.474534 -1.9547631 1065353216
-6.109231 -14.059126 -0.43450454 1065353216
-0.47583824 -3.9667995 -1.9506302 1065353216
-0.90434039 -4.7287412 -1.9562974 1065353216
-1.5014184 -5.7897482 -1.9433371 1086324736
-5.9729548 -13.745667 1.6640557 1109393408
-1.1776645 -5.1990194 -1.5012161 1091567616
-5.371058 -12.658748 1.9211437 1082130432
-1.139915 -5.1264501 -1.3212858 1095761920
-5.9903216 -13.739393 2.7615609 1110441984
-0.0063873222 -3.0948133 -1.9567105 1073741824
-5.8578568 -13.421144 -0.97928846 1091567616
-0.21727492 -3.4638426 -1.9547631 1065353216
-6.2134705 -14.032545 -0.43303916 1065353216
-0.50547069 -3.9681346 -1.9536831 1065353216
-0.92944282 -4.7100492 -1.9556715 1065353216
-1.530664 -5.759553 -1.9418747 1086324736
-6.0829835 -13.728516 1.671688 1108606976
-1.163361 -5.1038327 -1.4965059 1086324736
-5.4772553 -12.65233 1.9319412 1082130432
-1.1396661 -5.0553284 -1.3202038 1097859072
-6.1159954 -13.754708 2.7817488 1111752704
-0.018486964 -3.0790083 -1.9546399 1073741824
-6.0559387 -13.561319 -0.97544891 1105199104
-0.23768084 -3.4566684 -1.9556628 1077936128
-6.3339744 -14.02805 -0.43010828 1065353216
-0.51221776 -3.9280791 -1.9475772 1065353216
-0.97089237 -4.7181697 -1.9600518 1065353216
-1.5686965 -5.746881 -1.9428496 1086324736
-6.2076039 -13.740648 1.6858078 1109917696
-1.172676 -5.0500841 -1.4943078 1082130432
-5.5778179 -12.634898 1.9400395 1082130432
-1.1277639 -4.9675632 -1.3187727 1095761920
-6.2299252 -13.742538 2.7941718 1113325568
-0.028887382 -3.0595758 -1.951534 1073741824
-6.1613808 -13.537102 -0.97489041 1105199104
-0.26247063 -3.4557929 -1.9583623 1065353216
-6.4244909 -13.970819 -0.43031767 1065353216
-0.54431546 -3.9321208 -1.9513935 1065353216
-6.3842788 -13.88641 0.099215604 1082130432
-1.0185657 -4.7361245 -1.9663091 1065353216
-6.3782587 -13.85517 0.63322484 1084227584
-1.6055462 -5.72999 -1.9433371 1086324736
-6.3984742 -13.873833 1.1786498 1065353216
-1.210433 -5.0508924 -1.6705689 1073741824
-6.3290219 -13.740194 1.6976379 1110704128
-1.1742619 -4.9843745 -1.4913769 1082130432
-5.6923294 -12.640138 1.9544364 1082130432
-1.1297314 -4.9038472 -1.3178302 1094713344
-6.3499436 -13.739392 2.809701 1111752704
-0.054870311 -3.0666852 -1.9567105 1073741824
-5.845777 -12.803892 -0.98871273 1090519040
-0.27736136 -3.4379544 -1.9565628 1065353216
-6.4410186 -13.789411 -0.43806341 1092616192
-0.56851906 -3.9223762 -1.9521568 1065353216
-6.4207411 -13.73986 0.089802839 1104674816
-1.0463607 -4.7196755 -1.9663091 1065353216
-6.4237967 -13.724381 0.62225652 1108344832
-1.6443371 -5.7162366 -1.9443121 1086324736
-6.4341912 -13.726344 1.1614419 1096810496
-1.1616693 -4.9014378 -1.6571469 1086324736
-6.4417262 -13.723517 1.7060336 1109917696
-1.1678716 -4.9068608 -1.4877135 1088421888
-5.8312926 -12.684471 1.9796308 1073741824
-1.1309309 -4.840312 -1.3168877 1092616192
-6.4692898 -13.733541 2.8247128 1110441984
-0.069037803 -3.0536973 -1.9556752 1073741824
-5.8884182 -12.685081 -0.99010891 1090519040
-0.29006457 -3.4167047 -1.9538633 1065353216
-6.5184493 -13.712668 -0.43942413 1097859072
-0.602844 -3.9292433 -1.9567361 1065353216
-6.5380921 -13.729791 0.094334938 1107296256
-1.0740414 -4.7030334 -1.9663091 1065353216
-6.5378871 -13.709016 0.62786257 1107558400
-1.6830788 -5.7021842 -1.945287 1086324736
-6.5543499 -13.720836 1.1705152 1095761920
-1.1719917 -4.8533378 -1.6540093 1093664768
-6.5647674 -13.72267 1.7182451 1109131264
-1.1594845 -4.8279395 -1.4839453 1088421888
-6.5833383 -13.73279 2.2765663 1104674816
-1.1365656 -4.7855043 -1.3161199 1092616192
-6.5949593 -13.736554 2.8428302 1111228416
-0.083090901 -3.0406249 -1.9546399 1073741824
-5.8858252 -12.494682 -0.99297112 1088421888
-0.32090101 -3.4253032 -1.9592621 1065353216
-6.6411901 -13.710359 -0.43617931 1097859072
-0.61061996 -3.892303 -1.9513935 1065353216
-6.6598563 -13.7255 0.099564172 1107296256
-1.1016045 -4.6861978 -1.9663091 1065353216
-6.6521387 -13.692688 0.63346851 1106771968
-1.7113533 -5.6709328 -1.9438245 1088421888
-6.6789565 -13.721003 1.1808399 1095761920
-1.1692057 -4.7849536 -1.64878 1092616192
-6.6902361 -13.724079 1.7312204 1109131264
-1.1511682 -4.751039 -1.4802817 1077936128
-6.6994328 -13.718707 2.2878137 1107558400
-1.1257735 -4.7053113 -1.3148284 1091567616
-6.722065 -13.740087 2.861465 1111752704
-0.10520077 -3.0405869 -1.9577457 1073741824
-1.277458 -4.9194765 -1.1477391 1065353216
-0.33337554 -3.4038355 -1.9565628 1065353216
-6.7632227 -13.70527 -0.43303916 1095761920
-0.63877428 -3.8887141 -1.9536831 1065353216
-6.7861662 -13.726898 0.10549078 1107296256
-1.1290491 -4.6691709 -1.9663091 1065353216
-6.7802329 -13.697274 0.64224315 1105723392
-1.7424985 -5.644577 -1.9430934 1088421888
-6.8007998 -13.715038 1.190226 1097859072
-1.1645292 -4.7151217 -1.6433762 1086324736
-6.8119359 -13.71771 1.7426687 1109131264
-1.1291596 -4.6541586 -1.4753622 1091567616
-6.8343744 -13.733336 2.3071594 1108082688
-1.1203676 -4.6356282 -1.3137463 1093664768
-6.8444638 -13.734296 2.877512 1109917696
-0.11085422 -3.0142298 -1.9525694 1073741824
-1.2380718 -4.7930827 -1.1499729 1065353216
-0.34980142 -3.3889098 -1.9556628 1065353216
-6.8941236 -13.712602 -0.42906162 1094713344
-0.65225059 -3.8616743 -1.9506302 1065353216
-6.9086123 -13.720434 0.11072014 1107296256
-1.1563741 -4.6519527 -1.9663091 1065353216
-6.9066486 -13.697346 0.65053022 1105723392
-6.9250727 -13.711336 1.2002376 1097859072
-6.9455361 -13.728489 1.7583152 1107820544
-1.1596004 -4.6419921 -1.4756762 1082130432
-6.9582081 -13.733371 2.3224561 1108082688
-1.116261 -4.5695863 -1.3127341 1095761920
-6.9640522 -13.722542 2.8920054 1109917696
-0.12247413 -2.9976585 -1.9504988 1073741824
-1.2179893 -4.7015319 -1.1515088 1065353216
-0.37242448 -3.3837194 -1.9574625 1065353216
-7.0135274 -13.705075 -0.42602614 1095761920
-0.67978603 -3.8580568 -1.95292 1065353216
-7.0345984 -13.717916 0.11647246 1108606976
-1.1614954 -4.6017752 -1.9600518 1065353216
-7.0344248 -13.702744 0.65954852 1105723392
-1.1473519 -4.5739632 -1.7929504 1065353216
-7.051712 -13.714628 1.211501 1098907648
-7.0551586 -13.700114 1.7651843 1104674816
-7.0698566 -13.707951 2.3314543 1103101952
-1.1124402 -4.5054727 -1.3117567 1093664768
-7.064795 -13.685282 2.8982172 1106771968
-0.14831537 -3.0039454 -1.9556752 1073741824
-1.1996403 -4.6133547 -1.1529748 1065353216
-0.38394451 -3.3623226 -1.9547631 1065353216
-7.0622816 -13.583017 -0.43000361 1092616192
-0.70360816 -3.8472812 -1.9536831 1065353216
-7.0605373 -13.56568 0.1065366 1104674816
-1.1818588 -4.5744152 -1.9581746 1065353216
-7.0517955 -13.532823 0.64321804 1099431936
-7.0770445 -13.556729 1.1927289 1092616192
-7.062326 -13.519695 1.7365631 1108344832
-7.0818906 -13.534897 2.299511 1107558400
-1.1082991 -4.443696 -1.3108144 1082130432
-7.0837526 -13.518292 2.8635354 1109131264
-0.16190638 -2.9903927 -1.9546399 1073741824
-1.2082363 -4.5694146 -1.1535332 1065353216
-0.40647134 -3.3568351 -1.9565628 1065353216
-7.1351156 -13.504 -0.43136439 1099956224
-0.72249663 -3.8301387 -1.95292 1065353216
-7.154233 -13.513475 0.10723398 1108606976
-7.1485276 -13.490394 0.64541173 1107558400
-1.1449102 -4.4568939 -1.7807634 1065353216
-7.1728029 -13.512406 1.1952318 1099431936
-7.175251 -13.496778 1.7449585 1108606976
-7.1893549 -13.50346 2.3071594 1108082688
-1.1507097 -4.4515729 -1.3113379 1065353216
-7.2080522 -13.516992 2.8816528 1111228416
-0.19046691 -2.9992075 -1.9608516 1073741824
-1.2065098 -4.5080585 -1.1544408 1065353216
-0.42682835 -3.3479269 -1.9574625 1065353216
-7.2473841 -13.474622 -0.42937562 1098907648
-0.74889857 -3.8219304 -1.9544464 1065353216
-7.2431569 -13.453979 0.10723398 1104674816
-7.227283 -13.411345 0.64273059 1099431936
-1.1707531 -4.4395695 -1.7807634 1065353216
-7.236279 -13.410368 1.18741 1092616192
-7.2233462 -13.376976 1.7308389 1102053376
-1.1603419 -4.414485 -1.4657323 1077936128
-7.2297983 -13.353302 2.8485241 1104150528
-0.18655816 -2.9598579 -1.951534 1073741824
-1.2117622 -4.4610195 -1.1550691 1065353216
-0.44274837 -3.3324249 -1.9565628 1065353216
-7.2481818 -13.29066 -0.43733069 1092616192
-0.77200049 -3.8109927 -1.9552096 1073741824
-7.0526042 -12.986094 0.064004637 1099956224
-7.0451403 -12.96146 0.58447707 1100480512
-1.196475 -4.4220657 -1.7807634 1065353216
-7.0652938 -12.977137 1.1154503 1091567616
-1.1400183 -4.3356934 -1.6144406 1073741824
-7.0456414 -12.930239 1.6396321 1103101952
-1.2259719 -4.4567504 -1.4695005 1065353216
-6.8984475 -12.702541 2.1164012 1073741824
-1.1387136 -4.3244162 -1.3093833 1065353216
-7.0382528 -12.892212 2.7175617 1103626240
-0.21478449 -2.9685874 -1.9577457 1073741824
-1.2034677 -4.3939176 -1.1561162 1073741824
-0.46696958 -3.3299518 -1.9592621 1065353216
-7.0771489 -12.857976 -0.46109125 1091567616
-0.78438747 -3.783386 -1.9521568 1073741824
-7.0595832 -12.819149 0.052325826 1095761920
-7.0610757 -12.803322 0.56960893 1102053376
-7.085011 -12.824244 1.0973037 1091567616
-7.0923166 -12.816759 1.6266571 1088421888
-7.0352545 -12.721551 2.1379964 1073741824
-1.0869068 -4.1973028 -1.3070446 1098907648
-7.1139884 -12.820872 2.7134206 1111228416
-0.22842404 -2.954361 -1.9567105 1073741824
-1.2012628 -4.3369288 -1.1569539 1090519040
-0.47868124 -3.3075104 -1.9565628 1065353216
-1.2213894 -4.3601861 -1.0019311 1110179840
-0.8191064 -3.7878547 -1.9567361 1073741824
-1.2170714 -4.3500447 -0.84781867 1101529088
-1.1157665 -4.2037983 -1.9037354 1065353216
-1.1981983 -4.3193035 -0.69661361 1107296256
-1.2293867 -4.3581343 -0.53305638 1111752704
-1.2258052 -4.3490648 -0.3756927 1115422720
-7.1400566 -12.693116 2.1465445 1088421888
-1.0993735 -4.1640778 -1.3066956 1101004800
-7.2471275 -12.826358 2.7351613 1094713344
-0.24828805 -2.9497623 -1.958781 1073741824
-1.2048128 -4.2878475 -1.1576171 1088421888
-0.50104707 -3.3012087 -1.9583623 1065353216
-1.2047449 -4.2838349 -1.0056993 1107296256
-0.84081495 -3.7724438 -1.9567361 1077936128
-1.2201376 -4.3014345 -0.8511306 1099431936
-1.1237421 -4.1641989 -1.8993552 1077936128
-1.20173 -4.2705088 -0.70124465 1106771968
-1.2407203 -4.3209624 -0.53681082 1108869120
-1.2165364 -4.2833405 -0.38714126 1109393408
-1.1172477 -4.1425929 -1.4527531 1065353216
-7.2710328 -12.700191 2.1654403 1095761920
-1.1056544 -4.1227307 -1.306172 1100480512
-7.3718882 -12.822667 2.7537963 1101529088
-0.25683331 -2.9293463 -1.9556752 1073741824
-1.2042254 -4.2365456 -1.1583501 1086324736
-0.51883775 -3.2884078 -1.9583623 1065353216
-1.2135221 -4.2455235 -1.0070599 1110704128
-0.85098404 -3.7433398 -1.9533015 1082130432
-1.2331868 -4.2674675 -0.85287374 1102577664
-1.1539145 -4.1570506 -1.9012324 1077936128
-1.2093173 -4.2307587 -0.70465702 1107820544
-1.1147724 -4.0982442 -1.7424964 1065353216
-1.2312822 -4.2571068 -0.54588395 1111752704
-1.1125946 -4.0915675 -1.5956149 1073741824
-1.2261326 -4.2448955 -0.39210227 1115815936
-1.1308943 -4.1129889 -1.4519156 1065353216
-7.4840713 -12.817786 2.2162793 1104150528
-1.1020432 -4.0685444 -1.3053693 1098907648
-7.5006061 -12.827159 2.7750196 1110441984
-0.26479322 -2.9091959 -1.9525694 1073741824
-1.2036587 -4.1849756 -1.1590831 1088421888
-0.53609693 -3.2758076 -1.9583623 1065353216
-1.226051 -4.211638 -1.0081067 1114112000
-0.87767321 -3.7359896 -1.9552096 1082130432
-1.2334605 -4.2178993 -0.85635996 1104150528
-1.2011064 -4.1714716 -1.9074898 1077936128
-1.2241528 -4.200211 -0.70660686 1107820544
-1.1198499 -4.0576105 -1.7388403 1073741824
-1.2498608 -4.2312393 -0.54744834 1112276992
-1.1169412 -4.0488415 -1.592826 1073741824
-1.255722 -4.235352 -0.39019421 1115422720
-1.1175117 -4.0459976 -1.4486707 1100480512
-8.2789574 -13.716076 2.4920692 1105199104
-1.1067466 -4.0278525 -1.3048456 1099431936
-8.2806911 -13.704226 3.0881901 1109131264
-0.27754414 -2.8949559 -1.951534 1073741824
-1.2108653 -4.1448069 -1.1595718 1092616192
-0.55603969 -3.2658868 -1.9592621 1065353216
-1.2274768 -4.1633458 -1.0100955 1112801280
-0.90436512 -3.7284131 -1.9571178 1082130432
-1.2433196 -4.1808128 -0.85845166 1104674816
-1.2438862 -4.1790719 -1.9124956 1077936128
-1.2422537 -4.1743941 -0.7078256 1109393408
-1.151235 -4.0515943 -1.7405466 1082130432
-1.2658337 -4.2021227 -0.54963839 1113063424
-1.1542803 -4.0508509 -1.5949177 1073741824
-1.2682348 -4.2015553 -0.39401039 1117519872
-1.1332922 -4.0192914 -1.4480428 1104150528
-8.423111 -13.720391 2.5127649 1103626240
-1.1211854 -3.9996154 -1.3046013 1100480512
-8.4220114 -13.704794 3.1109667 1109131264
-0.30415606 -2.8991342 -1.9567105 1073741824
-1.2103941 -4.0951385 -1.1602699 1091567616
-0.56417304 -3.2402728 -1.9556628 1065353216
-1.2392085 -4.1295328 -1.0111421 1114898432
-0.93105882 -3.7206087 -1.9590259 1082130432
-1.262417 -4.1564579 -0.85914892 1106247680
-1.4134797 -4.3530345 -1.9506657 1084227584
-1.2469125 -4.1311035 -0.71172541 1112801280
-1.1898596 -4.0547848 -1.7437152 1077936128
-1.285113 -4.177671 -0.55088985 1116471296
-1.1357059 -3.9799898 -1.588991 1098907648
-1.2851576 -4.1740031 -0.39630011 1117519872
-1.1536602 -3.9988818 -1.4478334 1108082688
-8.5584373 -13.71575 2.530761 1105199104
-1.1353495 -3.9713373 -1.3043569 1100480512
-8.5649767 -13.705553 3.1342607 1108344832
-0.32149634 -2.8907833 -1.9577457 1073741824
-1.2319112 -4.0762258 -1.1603048 1093664768
-0.57916236 -3.2239418 -1.9547631 1065353216
-1.2414899 -4.0850859 -1.0129216 1115947008
-0.946464 -3.698967 -1.9574994 1082130432
-1.2703644 -4.1177931 -0.86141503 1106247680
-1.4331459 -4.3280587 -1.9494143 1084227584
-1.2601998 -4.1009469 -0.71367532 1112801280
-1.2128946 -4.0371566 -1.7437152 1073741824
-1.3011705 -4.1504483 -0.5527671 1116471296
-1.1679568 -3.9753611 -1.5903856 1117519872
-1.3114223 -4.1588144 -0.39553687 1118568448
-1.1696358 -3.974041 -1.4473101 1107820544
-8.6928387 -13.703489 2.5474072 1105723392
-1.159026 -3.9556735 -1.3043919 1100480512
-8.7085247 -13.709748 3.1585894 1109917696
-0.33130854 -2.8734369 -1.9556752 1073741824
-1.2452654 -4.045682 -1.1605841 1096810496
-0.60795683 -3.2263064 -1.9592621 1065353216
-1.2610514 -4.0623708 -1.0132356 1116471296
-0.95615274 -3.6691151 -1.9540648 1082130432
-1.283447 -4.0874929 -0.86280948 1105199104
-1.4653771 -4.3180676 -1.9512914 1084227584
-1.2847775 -4.0843911 -0.7134316 1113849856
-1.1288697 -3.8837526 -1.7225099 1073741824
-1.3114815 -4.1149268 -0.55620861 1117388800
-1.1941222 -3.9625943 -1.5909085 1109393408
-1.3285358 -4.1330719 -0.39744487 1117913088
-1.1933391 -3.9581285 -1.4474148 1108082688
-8.8347626 -13.699182 2.5667531 1104150528
-1.1709384 -3.9261141 -1.3041127 1090519040
-8.8524656 -13.707772 3.1818833 1108606976
-0.3365413 -2.8497005 -1.951534 1073741824
-1.2645167 -4.0229592 -1.1606888 1099956224
-0.62522197 -3.2127609 -1.9592621 1065353216
-1.2816594 -4.0411134 -1.0134449 1116471296
-0.97893727 -3.6562068 -1.954828 1082130432
-1.4877898 -4.2954125 -1.9506657 1084227584
-1.3030839 -4.0598779 -0.71440655 1113849856
-1.1753812 -3.8976619 -1.7273846 1065353216
-1.3373895 -4.0995426 -0.55558294 1116995584
-1.2028832 -3.9277763 -1.588991 1106247680
-1.349671 -4.1113987 -0.39820817 1117913088
-1.2144563 -3.938915 -1.4473101 1108606976
-8.981966 -13.69962 2.5878985 1105723392
-1.2142446 -3.93522 -1.304706 1082130432
-8.9884405 -13.693839 3.2015533 1109393408
-0.34876871 -2.8350432 -1.9504988 1073741824
-1.2873276 -4.0048108 -1.1606888 1101004800
-0.63995421 -3.1960545 -1.9583623 1065353216
-1.3083456 -4.0275183 -1.0131309 1116995584
-0.99304992 -3.6324062 -1.95292 1077936128
-1.505073 -4.2664599 -1.9487884 1084227584
-1.2097622 -3.8956056 -1.729822 1065353216
-1.3533001 -4.0716515 -0.55746019 1102053376
-1.2282275 -3.9151607 -1.589514 1107296256
-1.3644735 -4.081953 -0.40087947 1110704128
-1.2341745 -3.9180093 -1.4471008 1108606976
-9.1286297 -13.701974 2.609494 1104674816
-1.2364441 -3.9174247 -1.304706 1094713344
-9.1356363 -13.692157 3.2258825 1097859072
-0.37305242 -2.8353131 -1.9546399 1073741824
-1.3031404 -3.9792039 -1.1608633 1100480512
-0.6496309 -3.1732147 -1.9556628 1065353216
-1.3293573 -4.007978 -1.0132356 1116471296
-1.0225548 -3.628751 -1.9559729 1077936128
-1.5389498 -4.2593751 -1.9512914 1084227584
-1.244236 -3.8932221 -1.7322594 1065353216
-1.2528077 -3.9003539 -1.5898627 1107296256
-1.2557027 -3.9005258 -1.4471008 1108606976
-9.2842321 -13.708618 2.6333385 1104674816
-1.2686546 -3.9118516 -1.3049853 1084227584
-9.27983 -13.689404 3.2496934 1097859072
-0.39460015 -2.8326631 -1.9577457 1073741824
-1.3294606 -3.9654164 -1.1607585 1102577664
-0.67106193 -3.1657414 -1.9574625 1065353216
-1.3482484 -3.9847553 -1.0135497 1113849856
-1.048869 -3.6198709 -1.957881 1094713344
-1.5646626 -4.2408271 -1.9516042 1084227584
-1.2610785 -3.8691018 -1.7312844 1065353216
-1.2773054 -3.8853583 -1.5902113 1107296256
-1.2738336 -3.87783 -1.4467868 1108082688
-9.4254971 -13.695725 2.6517847 1104674816
-1.2919674 -3.895215 -1.3050201 1091567616
-9.4304256 -13.687869 3.2750578 1077936128
-0.39957374 -2.8084555 -1.9536046 1073741824
-1.3582809 -3.9544866 -1.1605841 1101529088
-0.68081975 -3.1424377 -1.9547631 1065353216
-1.061308 -3.5942073 -1.9555913 1103626240
-1.5908622 -4.2215829 -1.9519172 1084227584
-1.2649451 -3.8296976 -1.7278721 1073741824
-1.3055644 -3.8747509 -1.5910828 1106247680
-1.3064624 -3.8713872 -1.4476241 1107296256
-9.577137 -13.693411 2.6738298 1105199104
-1.3100207 -3.8722906 -1.3049154 1065353216
-9.6024551 -13.705106 3.3081865 1110704128
-0.41142872 -2.7934277 -1.9525694 1073741824
-1.3863418 -3.9413133 -1.1604444 1099956224
-0.700019 -3.1313577 -1.9556628 1065353216
-1.4325427 -3.9923334 -1.0104095 1065353216
-1.0867099 -3.5830524 -1.9571178 1090519040
-1.6124923 -4.1981425 -1.9512914 1084227584
-1.306999 -3.8357327 -1.7317719 1073741824
-1.3260472 -3.8548033 -1.5909085 1107296256
-1.3398845 -3.8666213 -1.4485661 1107820544
-9.7318001 -13.692573 2.6967745 1105199104
-1.3577607 -3.8842328 -1.3056135 1065353216
-9.7378559 -13.681369 3.3268218 1108082688
-0.43071401 -2.7871242 -1.9546399 1073741824
-1.4080253 -3.9227936 -1.1604444 1098907648
-0.71661931 -3.1171718 -1.9556628 1065353216
-1.4363284 -3.952307 -1.0118749 1065353216
-1.1046798 -3.5650928 -1.9567361 1082130432
-1.6307582 -4.1720939 -1.95004 1084227584
-1.3336916 -3.8233013 -1.7327468 1065353216
-1.3515919 -3.8407509 -1.5914315 1106247680
-1.3571395 -3.8438883 -1.4482521 1107296256
-9.8869781 -13.690201 2.7197199 1105199104
-1.3743616 -3.8593926 -1.3054739 1082130432
-9.8952503 -13.686056 3.3552918 1109393408
-0.43440863 -2.7634854 -1.9504988 1073741824
-1.4380201 -3.9126875 -1.1602349 1098907648
-0.73270828 -3.1032295 -1.9556628 1065353216
-1.117839 -3.5406792 -1.954828 1082130432
-1.6650056 -4.1632795 -1.9525429 1084227584
-1.3598036 -3.8111165 -1.7337219 1065353216
-1.3810096 -3.8309867 -1.5924773 1106247680
-1.3813335 -3.8281 -1.4484614 1107296256
-10.046514 -13.690685 2.7440145 1105723392
-1.4139671 -3.8619857 -1.3059626 1084227584
-10.046543 -13.677055 3.3801384 1106247680
-0.46635947 -2.7714267 -1.9577457 1073741824
-1.4786057 -3.914299 -1.1597463 1098907648
-0.74652833 -3.0858974 -1.9547631 1065353216
-1.1411923 -3.5279753 -1.9559729 1082130432
-1.680921 -4.1334653 -1.9506657 1084227584
-1.378497 -3.7893393 -1.7332344 1065353216
-1.4157171 -3.8269186 -1.5942204 1096810496
-1.4041086 -3.8106325 -1.4485661 1106247680
-10.198825 -13.680837 2.76561 1096810496
-1.4436327 -3.8517556 -1.306172 1084227584
-10.207254 -13.676662 3.4086084 1109393408
-0.48303148 -2.7617576 -1.958781 1073741824
-1.5126706 -3.9080553 -1.1594322 1097859072
-0.76541293 -3.0742888 -1.9556628 1077936128
-1.1566136 -3.506319 -1.954828 1082130432
-1.7071348 -4.115345 -1.9512914 1077936128
-1.4156154 -3.7881014 -1.7361592 1065353216
-1.6664327 -4.0642748 -0.52617323 1086324736
-1.4598393 -3.8328719 -1.5971838 1098907648
-1.4361408 -3.8033743 -1.4494035 1104674816
-10.360693 -13.679609 2.7903543 1106247680
-1.4706075 -3.8382955 -1.3063116 1082130432
-10.371103 -13.677515 3.4381142 1106771968
-0.49445719 -2.746237 -1.9577457 1073741824
-1.545439 -3.9000108 -1.159153 1098907648
-0.78685981 -3.0654128 -1.9574625 1065353216
-1.1665632 -3.4787793 -1.9521568 1077936128
-1.6912725 -4.0533385 -0.84206641 1065353216
-1.7758467 -4.1437197 -1.961929 1065353216
-1.6959145 -4.0537887 -0.6836955 1092616192
-1.442137 -3.7747674 -1.7371341 1065353216
-1.7121774 -4.0681071 -0.52085447 1088421888
-1.5203135 -3.8560009 -1.6022388 1073741824
-1.4655069 -3.7928722 -1.4500315 1104150528
-10.524419 -13.678185 2.8155489 1106247680
-1.4907726 -3.8172381 -1.3062767 1082130432
-10.535525 -13.676709 3.4676194 1108869120
-0.4978978 -2.7221336 -1.9536046 1073741824
-1.5714525 -3.8843129 -1.1590482 1098907648
-0.79506665 -3.0420303 -1.9547631 1065353216
-1.1909076 -3.4670949 -1.9536831 1077936128
-1.7386316 -4.0585423 -0.83892876 1086324736
-1.8021717 -4.1248984 -1.9625547 1065353216
-1.7539948 -4.0705004 -0.67735827 1092616192
-1.4632109 -3.7553849 -1.7371341 1065353216
-1.7648348 -4.0787058 -0.51397133 1088421888
-1.4975783 -3.7850354 -1.450869 1107820544
-10.688691 -13.675104 2.8407435 1106247680
-1.5312012 -3.8180218 -1.3067654 1082130432
-10.691288 -13.66433 3.4935007 1106771968
-0.51428449 -2.7121909 -1.9546399 1073741824
-1.6055841 -3.8771667 -1.1587341 1097859072
-0.80837756 -3.0243375 -1.9538633 1065353216
-1.2178953 -3.4580684 -1.9559729 1073741824
-1.7875717 -4.0646987 -0.83561689 1088421888
-1.8202744 -4.0972314 -1.9613032 1065353216
-1.7825602 -4.0547223 -0.67638332 1092616192
-1.4923035 -3.7445376 -1.7385966 1065353216
-1.8110207 -4.081533 -0.50865257 1086324736
-1.6480849 -3.9059703 -1.6130461 1073741824
-1.5187223 -3.7652662 -1.450869 1104674816
-1.5649189 -3.8111134 -1.3070796 1082130432
-10.863363 -13.667268 3.5255947 1109131264
-0.52762175 -2.6996353 -1.9546399 1073741824
-1.6433394 -3.8745663 -1.1583152 1096810496
-0.82651526 -3.0126002 -1.9547631 1065353216
-1.2417023 -3.4463992 -1.9574994 1065353216
-1.8334203 -4.0679951 -0.83265358 1091567616
-1.8511772 -4.084342 -1.9631804 1065353216
-1.8186924 -4.0478811 -0.6739459 1090519040
-1.6139405 -3.8316867 -1.7566333 1065353216
-1.8472762 -4.07442 -0.50552386 1088421888
-1.5585104 -3.7660754 -1.4523343 1104150528
-1.8865952 -4.1074548 -0.16055347 1098907648
-1.5953817 -3.8015008 -1.3073238 1094713344
-11.036471 -13.673376 3.5587234 1107296256
-0.5465669 -2.6922345 -1.9567105 1073741824
-1.6817402 -3.8710716 -1.1578964 1098907648
-0.8503902 -3.0059597 -1.9574625 1065353216
-1.2577642 -3.4255965 -1.9567361 1065353216
-1.8786545 -4.0688257 -0.82986456 1093664768
-1.8497181 -4.0365047 -1.9575489 1065353216
-1.8623428 -4.0472879 -0.67028981 1090519040
-1.8869027 -4.0692496 -0.50176942 1088421888
-1.6017454 -3.7688425 -1.4540091 1104150528
-1.907269 -4.0821624 -0.16145326 1102053376
-1.6222045 -3.786793 -1.3074635 1093664768
-11.200382 -13.663055 3.587194 1107296256
-0.54392385 -2.6625299 -1.9504988 1065353216
-1.7188389 -3.8657608 -1.1575124 1097859072
-0.86338925 -2.9879379 -1.9565628 1065353216
-1.2736602 -3.4047017 -1.9559729 1065353216
-1.9184828 -4.0634866 -0.82777286 1091567616
-1.911284 -4.0538116 -1.9663091 1065353216
