# .PCD v0.7 - Point Cloud Data file format
VERSION 0.7
FIELDS x y z rgba
SIZE 4 4 4 4
TYPE F F F U
COUNT 1 1 1 1
WIDTH 1091
HEIGHT 1
VIEWPOINT 0 0 0 1 0 0 0
POINTS 1091
DATA ascii
0.059923403 -4.1708241 -1.5529087 1103101952
-3.5177548 -13.851326 1.4820238 1099956224
0.084120765 -4.0998473 -1.4209328 1113325568
-3.5002706 -13.782994 1.9755818 1109393408
0.073319055 -4.1218228 -1.2963986 1117650944
-3.1308901 -12.765412 2.2009587 1094713344
0.38992631 -3.2456677 -1.9484283 1073741824
0.01858991 -4.2358761 -1.1685424 1077936128
0.23155534 -3.6649027 -1.9529635 1084227584
0.013876934 -4.2391844 -1.9586443 1065353216
-3.6176584 -13.916304 -0.0029308998 1082130432
-0.10440254 -4.5485411 -1.8768286 1065353216
-3.6087205 -13.86463 0.48722526 1088421888
-0.070790201 -4.4531531 -1.7198287 1073741824
-3.6150839 -13.860707 0.98592246 1086324736
0.031128127 -4.1749682 -1.5541288 1102053376
-3.6165445 -13.843785 1.4873663 1092616192
0.052274399 -4.1135345 -1.4221888 1104150528
-3.6001213 -13.772697 1.9814304 1108869120
0.040470075 -4.13942 -1.2968873 1111752704
-3.2386279 -12.797256 2.2190762 1073741824
0.36561435 -3.2571375 -1.9536046 1073741824
-0.017155891 -4.2565694 -1.1679839 1077936128
0.21816498 -3.6390045 -1.9484645 1077936128
-0.090865761 -4.4437275 -1.0261103 1065353216
-0.0076657212 -4.2226219 -1.9571178 1065353216
-0.31909549 -5.0290751 -1.9600518 1065353216
-0.10232862 -4.4581518 -1.7217786 1073741824
-3.7192817 -13.859097 0.99155414 1086324736
0.0029299045 -4.1770177 -1.5551747 1093664768
-3.7191496 -13.838291 1.4934725 1099956224
0.025924681 -4.112031 -1.4226075 1103626240
-3.7049758 -13.774366 1.9904286 1109393408
0.0038469492 -4.1639566 -1.2975156 1110441984
-3.7162218 -13.78318 2.5115416 1116602368
0.34530523 -3.2575886 -1.9556752 1073741824
-0.059792548 -4.2936988 -1.1671113 1073741824
0.19091462 -3.6493707 -1.9529635 1077936128
-0.031901136 -4.213243 -1.9571178 1065353216
-0.36335981 -5.0542898 -1.9663091 1065353216
-3.9428194 -14.180749 0.53816676 1065353216
-0.13102743 -4.4533968 -1.7225099 1073741824
-3.8244166 -13.858507 0.99749863 1084227584
-0.031919323 -4.1955285 -1.5577893 1120403456
-3.8270791 -13.83841 1.5011047 1094713344
-0.019485371 -4.1586432 -1.4257476 1102053376
-3.8065193 -13.766139 1.997177 1109393408
-0.029378235 -4.1767478 -1.2979345 1109655552
-3.8220048 -13.785415 2.5224121 1114898432
0.3230764 -3.2612932 -1.958781 1073741824
-3.849704 -13.742547 -0.98941082 1107296256
0.16584352 -3.6520524 -1.9556628 1065353216
-0.045882381 -4.1781673 -1.9517751 1065353216
-0.39414236 -5.0421071 -1.9663091 1065353216
-4.8431883 -16.159954 0.80481684 1065353216
-0.84914899 -6.1716938 -1.9511368 1065353216
-3.9239924 -13.836 1.0000015 1090519040
-0.068573728 -4.2174172 -1.5607526 1099431936
-3.9359086 -13.845858 1.5102636 1095761920
-0.06323272 -4.1971278 -1.4284692 1099956224
-3.9125559 -13.767975 2.0066247 1109393408
-0.054786261 -4.1709285 -1.2980043 1109655552
-3.9317815 -13.789474 2.5343177 1115947008
0.30990452 -3.2435074 -1.9556752 1073741824
-3.3681419 -12.291689 -1.0160432 1084227584
0.14118312 -3.6547303 -1.9583623 1065353216
-3.332324 -12.186371 -0.5862788 0
-0.071885139 -4.171916 -1.9525384 1065353216
-0.42408878 -5.0300107 -1.9663091 1065353216
-4.9653349 -16.144835 0.80871665 1065353216
-0.9079954 -6.2078447 -1.9579614 1065353216
-4.028708 -13.831957 1.0056332 1084227584
-2.4290411 -9.9165068 -2.100421 1073741824
-4.0406241 -13.84152 1.5171326 1094713344
-2.7962227 -10.793733 -1.8026713 1093664768
-4.018867 -13.768966 2.016073 1109393408
-2.4502447 -9.9362764 -1.4069772 1108082688
-4.0278506 -13.764974 2.5379412 1115947008
0.29841021 -3.2220907 -1.951534 1073741824
-3.4443219 -12.253942 -1.016148 1084227584
0.12240227 -3.6428044 -1.9574625 1065353216
-3.4345784 -12.213445 -0.58292931 0
-0.093662694 -4.1587114 -1.9517751 1065353216
-0.45320538 -5.0180149 -1.9663091 1065353216
-0.92468476 -6.1408281 -1.9511368 1065353216
-4.1381803 -13.844449 1.0140806 1088421888
-4.1440253 -13.832737 1.5232385 1094713344
-2.8760695 -10.793098 -1.8042413 1096810496
-4.1299605 -13.779887 2.0282202 1108869120
-2.5289876 -9.9447498 -1.4076403 1109393408
-4.1305265 -13.762099 2.5477762 1114374144
0.27557307 -3.2292931 -1.9556752 1073741824
-4.1604328 -13.725297 -0.98763067 1107558400
0.10878623 -3.6202016 -1.9538633 1065353216
-4.3395557 -14.129666 -0.47197708 1065353216
-0.12510668 -4.1668115 -1.9555913 1065353216
-0.4829821 -5.0055065 -1.9663091 1065353216
-0.96135062 -6.1253996 -1.9511368 1065353216
-4.2488127 -13.851445 1.0219024 1086324736
-2.5831964 -9.9298973 -2.1066961 1073741824
-4.2498941 -13.834955 1.5316342 1094713344
-2.9555035 -10.785583 -1.8054974 1091567616
-4.2292504 -13.767561 2.034519 1108869120
-1.1917301 -6.6391196 -1.345405 1084227584
-4.2394772 -13.76634 2.5601997 1114374144
0.25673801 -3.2254646 -1.9567105 1073741824
-4.2652559 -13.726237 -0.98689771 1107558400
0.08875367 -3.6116502 -1.9538633 1065353216
-4.3292928 -13.856053 -0.48537514 1065353216
-0.14368606 -4.1460562 -1.9533015 1065353216
-0.51193011 -4.9931107 -1.9663091 1065353216
-0.99884582 -6.1093159 -1.9511368 1065353216
-4.353591 -13.849463 1.02816 1084227584
-4.3614593 -13.842548 1.5415562 1094713344
-1.2096823 -6.579401 -1.5668454 1065353216
-4.3347816 -13.762434 2.043067 1109917696
-1.1625924 -6.4600582 -1.3423334 1096810496
-4.345705 -13.76891 2.5721052 1114898432
0.24721843 -3.2002649 -1.951534 1073741824
-4.3740735 -13.722531 -0.98619962 1107558400
0.065646015 -3.610096 -1.9556628 1065353216
-4.5258613 -14.049291 -0.47197708 1065353216
-0.16639315 -4.1318755 -1.9525384 1065353216
-0.54227108 -4.979867 -1.9663091 1065353216
-1.0362287 -6.0929713 -1.9511368 1065353216
-4.4567866 -13.830186 1.0319141 1086324736
-4.4686332 -13.838449 1.5491885 1094713344
-4.4428782 -13.76181 2.0529647 1109917696
-1.1967454 -6.4297657 -1.3420891 1099431936
-4.4559903 -13.766855 2.5834935 1114898432
0.22696111 -3.1997452 -1.9536046 1073741824
-4.4818587 -13.72726 -0.98536187 1107558400
0.045685031 -3.6012437 -1.9556628 1065353216
-4.6162739 -14.009168 -0.47197708 1065353216
-0.18940216 -4.1216545 -1.9525384 1065353216
-0.57104373 -4.9670682 -1.9663091 1065353216
-1.0653534 -6.0582623 -1.9486994 1065353216
-4.5635428 -13.830168 1.0387973 1082130432
-4.5784464 -13.838858 1.5579659 1094713344
-1.1824853 -6.3031344 -1.5530287 1065353216
-4.5528431 -13.763864 2.0637624 1109917696
-1.304704 -6.5632825 -1.3449862 1065353216
-4.5580101 -13.757139 2.5922933 1114374144
0.20548554 -3.2027729 -1.9567105 1073741824
-4.5905814 -13.726446 -0.98459399 1107820544
0.026283419 -3.592479 -1.9556628 1065353216
-0.21619081 -4.1181531 -1.9540648 1065353216
-0.60046262 -4.9537382 -1.9663091 1065353216
-1.1064134 -6.0527067 -1.9501618 1065353216
-4.6794329 -13.84262 1.0481833 1086324736
-4.6829867 -13.832281 1.5652164 1094713344
-1.2012044 -6.2419467 -1.5505166 1065353216
-4.6606746 -13.759702 2.0732105 1109393408
-1.1954637 -6.2218933 -1.3387731 1077936128
-4.6672816 -13.756121 2.6041989 1112539136
0.19161528 -3.1878965 -1.9546399 1073741824
-4.5707746 -13.447226 -0.9891665 1107296256
0.0080879424 -3.5798178 -1.9547631 1065353216
-0.23803489 -4.1037607 -1.9533015 1065353216
-0.62978697 -4.9402037 -1.9663091 1065353216
-4.8500195 -13.988343 0.56034684 1065353216
-1.1467546 -6.0428095 -1.9511368 1073741824
-4.7974548 -13.857669 1.0581952 1082130432
-4.7924886 -13.829156 1.5736121 1094713344
-4.7736945 -13.765255 2.0853577 1109917696
-1.1589634 -6.0448256 -1.3357015 1096810496
-4.7768264 -13.754207 2.6161046 1112539136
0.17624873 -3.1764405 -1.9536046 1073741824
-4.6806598 -13.450963 -0.98829389 1107296256
-0.013325726 -3.5740881 -1.9556628 1065353216
-0.25639245 -4.0821314 -1.9510119 1065353216
-0.65901661 -4.9264636 -1.9663091 1065353216
-4.9950986 -14.056103 0.57545877 1065353216
-1.1836689 -6.025434 -1.9511368 1073741824
-4.9041057 -13.846729 1.0638269 1082130432
-4.9056134 -13.832228 1.5835341 1094713344
-1.1642871 -5.9681559 -1.5366999 1065353216
-4.8747458 -13.749838 2.0921061 1107296256
-1.1691988 -5.9714155 -1.3346194 1099431936
-4.8924632 -13.763599 2.6316338 1114636288
0.15763843 -3.1718531 -1.9546399 1073741824
-4.7912645 -13.460258 -0.98731655 1107558400
-0.034724038 -3.5681975 -1.9565628 1065353216
-5.0149221 -13.907623 -0.46799961 1065353216
-0.27906016 -4.0712991 -1.9510119 1065353216
-5.0242147 -13.903418 0.044481736 1082130432
-0.6736834 -4.8844085 -1.9613032 1065353216
-5.004375 -13.844769 0.55254734 1084227584
-1.2152765 -5.9970779 -1.9496744 1073741824
-5.0068936 -13.832487 1.0688328 1077936128
-1.2282367 -6.0168376 -1.7458714 1073741824
-5.0336337 -13.864389 1.5999438 1088421888
-1.201515 -5.9546947 -1.5369092 1065353216
-1.1628042 -5.865747 -1.3329091 1090519040
-5.0028749 -13.766164 2.6450922 1114636288
0.14285466 -3.1603899 -1.9536046 1073741824
-4.8165627 -13.287948 -0.98982972 1103101952
-0.055613682 -3.5623863 -1.9574625 1065353216
-0.30396223 -4.0635543 -1.9517751 1065353216
-0.69903821 -4.8632717 -1.9600518 1065353216
-1.26239 -6.000598 -1.9525992 1065353216
-1.2526375 -5.9738741 -1.7434311 1073741824
-5.1702199 -13.911245 1.6197878 1086324736
-1.190084 -5.8402224 -1.5312569 1098907648
-1.1603762 -5.7711816 -1.3314081 1095761920
-5.1115999 -13.758043 2.6559627 1113325568
0.11872181 -3.1657126 -1.9577457 1073741824
-4.9271569 -13.291311 -0.98892218 1098907648
-0.073989026 -3.5489566 -1.9565628 1065353216
-0.32883418 -4.0556235 -1.9525384 1065353216
-0.72137541 -4.834559 -1.9575489 1065353216
-1.2847825 -5.9540181 -1.9486994 1065353216
-5.2831059 -13.9077 1.6289467 1077936128
-1.2022599 -5.7739186 -1.5284308 1094713344
-1.1630418 -5.6894078 -1.3301517 1093664768
-5.224524 -13.751347 2.6678684 1112539136
0.10011528 -3.1606879 -1.958781 1073741824
-0.095282607 -3.5426068 -1.9574625 1065353216
-0.3524709 -4.043714 -1.9525384 1065353216
-0.77495468 -4.8694749 -1.9663091 1065353216
-1.3300884 -5.9533677 -1.9511368 1065353216
-5.3926873 -13.896222 1.6365792 1065353216
-1.1972961 -5.6779137 -1.5238253 1093664768
-1.1619545 -5.6025043 -1.3287903 1091567616
-5.3380551 -13.750019 2.6813269 1112539136
0.086832114 -3.1452193 -1.9567105 1073741824
-5.142036 -13.28101 -0.98738635 1090519040
-0.10582889 -3.5153172 -1.9529635 1065353216
-0.36585984 -4.0147886 -1.9487221 1065353216
-0.7793619 -4.8094835 -1.9581746 1065353216
-1.3462715 -5.8959436 -1.9457746 1065353216
-5.50424 -13.88734 1.6449746 1077936128
-1.1939565 -5.5897546 -1.5196383 1091567616
-4.9218464 -12.751105 1.8905503 1073741824
-1.1560833 -5.5087667 -1.3272895 1091567616
-5.4522963 -13.75406 2.6963384 1113325568
0.070533544 -3.1367452 -1.9567105 1073741824
-5.2572589 -13.288687 -0.98633921 1090519040
-0.1282651 -3.5124249 -1.9547631 1065353216
-0.39594495 -4.0168157 -1.9517751 1065353216
-0.83160162 -4.8401489 -1.9663091 1065353216
-1.3738554 -5.8636022 -1.9438245 1065353216
-5.6118684 -13.875279 1.6526071 1106771968
-1.1941004 -5.5084968 -1.5158702 1091567616
-4.9818025 -12.662428 1.8788527 1082130432
-1.14821 -5.4157825 -1.3257885 1094713344
-5.5673614 -13.752529 2.7103148 1112539136
0.066601858 -3.1040733 -1.9494635 1073741824
-5.3597212 -13.270667 -0.98578072 1103626240
-0.14753951 -3.5022213 -1.9547631 1065353216
-0.41503111 -3.9978063 -1.9502486 1065353216
-5.7365265 -13.943481 0.075857855 1082130432
-0.84520942 -4.7971396 -1.9613032 1065353216
-5.7010942 -13.855238 0.59252048 1077936128
-1.4048237 -5.8358989 -1.942606 1073741824
-5.7172918 -13.852483 1.6583313 1097859072
-1.1970165 -5.4345136 -1.5125207 1094713344
-5.0814595 -12.649007 1.8869511 1082130432
-1.1418834 -5.326221 -1.3243574 1094713344
-5.6790662 -13.743219 2.7222202 1102053376
0.040965598 -3.1122229 -1.9546399 1073741824
-5.3764162 -13.093639 -0.98836368 1090519040
-0.16488269 -3.4884582 -1.9538633 1065353216
-0.44518963 -3.999387 -1.9533015 1065353216
-0.86398965 -4.7645507 -1.9581746 1065353216
-1.442188 -5.8202124 -1.9430934 1086324736
-5.7869682 -13.763381 1.6495541 1094713344
-1.1875273 -5.3396931 -1.5079151 1092616192
-5.1905904 -12.651868 1.8995482 1082130432
-1.1469095 -5.2597828 -1.3233801 1091567616
-5.8011894 -13.751621 2.7398202 1112539136
0.020750381 -3.109978 -1.9567105 1073741824
-5.6083155 -13.31095 -0.98309308 1103626240
-0.18398887 -3.4779994 -1.9538633 1065353216
-0.46785596 -3.986959 -1.9533015 1065353216
-0.91685987 -4.7941151 -1.9663091 1065353216
-1.4775412 -5.8007798 -1.9430934 1086324736
-5.8948278 -13.744317 1.6564232 1108344832
-1.1836318 -5.2574587 -1.5040423 1092616192
-5.3000708 -12.653785 1.9121455 1082130432
-1.1452965 -5.1830153 -1.3221933 1092616192
-5.9171882 -13.747132 2.7537963 1111228416
0.0080602029 -3.094084 -1.9546399 1073741824
-5.7232523 -13.311086 -0.98211575 1104150528
-0.21160322 -3.4827037 -1.9579124 1065353216
-0.49620557 -3.9846423 -1.9555913 1065353216
-0.9179396 -4.7301717 -1.9575489 1065353216
-1.5010657 -5.7603469 -1.9401685 1086324736
-6.013381 -13.743185 1.6674901 1107820544
-1.1787115 -5.1755047 -1.5001694 1088421888
-5.4001446 -12.642354 1.9211437 1082130432
-1.1397797 -5.1012721 -1.3209019 1097859072
-6.0372744 -13.748381 2.7698431 1111228416
-0.0063846633 -3.081485 -1.9536046 1073741824
-6.0531521 -13.69197 -0.97349423 1108869120
-0.22101386 -3.4549911 -1.9534134 1065353216
-0.50846958 -3.9551313 -1.9517751 1065353216
-0.95284605 -4.7285409 -1.9600518 1065353216
-1.5458642 -5.757731 -1.942606 1086324736
-6.1293397 -13.735921 1.6774122 1109131264
-1.1730065 -5.0960112 -1.4964012 1082130432
-5.517004 -12.654264 1.9368902 1086324736
-1.1302534 -5.0146241 -1.3195057 1095761920
-6.1564264 -13.751563 2.7864075 1112539136
-0.022247247 -3.0723779 -1.9536046 1073741824
-6.0902348 -13.54844 -0.97534418 1105199104
-0.24332158 -3.4511592 -1.955213 1065353216
-0.51900125 -3.921886 -1.9471956 1065353216
-1.000437 -4.7467122 -1.9663091 1065353216
-1.5839002 -5.744947 -1.9435809 1086324736
-6.2521834 -13.744257 1.6907688 1110179840
-1.175133 -5.0301695 -1.4934704 1082130432
-5.6225648 -12.644925 1.9472378 1073741824
-1.128994 -4.9460196 -1.3184586 1095761920
-6.2714081 -13.740722 2.7993484 1111752704
-0.040410392 -3.0662556 -1.9546399 1073741824
-6.1997113 -13.530839 -0.97464609 1105199104
-0.2720519 -3.4569473 -1.959712 1065353216
-6.4081149 -13.86925 -0.43534192 1065353216
-0.54910207 -3.9224737 -1.9502486 1073741824
-6.3961167 -13.833216 0.095729329 1091567616
-1.0283072 -4.7303896 -1.9663091 1065353216
-6.4021897 -13.822639 0.63127494 1096810496
-1.6257951 -5.7364893 -1.945287 1088421888
-6.4214745 -13.839622 1.1758338 1091567616
-1.1559836 -4.9349608 -1.659413 1082130432
-6.3627491 -13.724835 1.6984013 1110179840
-1.1672974 -4.9490504 -1.4895976 1086324736
-5.7412543 -12.65648 1.9634343 1082130432
-1.1306988 -4.8823633 -1.3175161 1092616192
-6.3935051 -13.740535 2.8159127 1111228416
-0.052608937 -3.0500429 -1.9525694 1073741824
-5.8618765 -12.764025 -0.9891665 1098907648
-0.28093201 -3.4290175 -1.955213 1065353216
-6.451323 -13.734411 -0.44026151 1094713344
-0.57728225 -3.9194272 -1.9525384 1065353216
-6.4586124 -13.731152 0.090848662 1107296256
-1.0560626 -4.7138729 -1.9663091 1065353216
-6.4595709 -13.712219 0.62323153 1110179840
-1.6595376 -5.7140746 -1.9450433 1086324736
-6.4811478 -13.732747 1.166135 1096810496
-1.1680102 -4.8906655 -1.656624 1091567616
-6.4875817 -13.728054 1.7113763 1109393408
-1.1656655 -4.8802285 -1.4864573 1091567616
-6.5059662 -13.743196 2.2693677 1104674816
-1.131634 -4.8188896 -1.3165736 1092616192
-6.5129752 -13.734311 2.8309245 1109917696
-0.080685385 -3.0601959 -1.958781 1073741824
-5.8791623 -12.608863 -0.99133056 1088421888
-0.29759625 -3.4144194 -1.9543132 1065353216
-6.5540743 -13.705081 -0.43879607 1097859072
-0.60087663 -3.9097691 -1.9533015 1065353216
-6.5811896 -13.729261 0.0962523 1107296256
-1.083012 -4.6975832 -1.9663091 1065353216
-6.577611 -13.708095 0.63029993 1106771968
-1.6900094 -5.6863494 -1.9440683 1086324736
-6.595088 -13.721474 1.1739568 1095761920
-1.1750715 -4.8374634 -1.6529634 1093664768
-6.6128325 -13.730159 1.7243513 1108344832
-1.1656126 -4.817183 -1.4836313 1088421888
-6.6229563 -13.731437 2.2810652 1106247680
-1.1359832 -4.7624283 -1.3157709 1092616192
-6.6385412 -13.741616 2.8500772 1111228416
-0.096401408 -3.0505838 -1.958781 1073741824
-5.9177113 -12.486804 -0.9927966 1088421888
-0.32185808 -3.4132729 -1.9570125 1065353216
-6.682127 -13.710946 -0.43502793 1098907648
-0.61672091 -3.8862362 -1.9510119 1065353216
-6.7039518 -13.731078 0.10200451 1107296256
-1.1105369 -4.680685 -1.9663091 1065353216
-6.7003016 -13.70494 0.63785589 1106771968
-1.7265136 -5.6685643 -1.9445558 1088421888
-6.7146201 -13.712885 1.1827172 1097859072
-1.1657572 -4.7589703 -1.6466882 1092616192
-6.7322769 -13.721136 1.7350365 1109131264
-1.145494 -4.7216616 -1.4788163 1082130432
-6.7473655 -13.730259 2.2959118 1106247680
-1.1206516 -4.6755438 -1.3143398 1091567616
-6.7688789 -13.74968 2.870265 1110441984
-0.10875118 -3.0338142 -1.9567105 1073741824
-1.2879804 -4.9152594 -1.1477041 1065353216
-0.34710974 -3.4113364 -1.959712 1065353216
-6.8097229 -13.709156 -0.43157378 1095761920
-0.64276761 -3.8792646 -1.9525384 1065353216
-6.8273973 -13.722229 0.10705958 1107296256
-1.1386265 -4.663166 -1.9663091 1065353216
-6.825448 -13.70406 0.64589918 1107558400
-1.7703183 -5.6622705 -1.9467494 1073741824
-6.8450994 -13.715205 1.1939803 1098907648
-6.8624558 -13.727684 1.7495381 1109131264
-1.1504253 -4.6667328 -1.4765135 1099431936
-6.8783841 -13.737863 2.3134582 1108082688
-1.1181139 -4.6110487 -1.3133624 1095761920
-6.8823686 -13.724096 2.8806176 1110441984
-0.11431745 -3.0074577 -1.951534 1073741824
-1.2318457 -4.7615066 -1.1504966 1065353216
-0.36357978 -3.3963201 -1.9588122 1065353216
-6.9375877 -13.711012 -0.42791018 1094713344
-0.66513443 -3.8651135 -1.9525384 1065353216
-6.9402885 -13.700281 0.11072014 1102577664
-1.1382718 -4.602592 -1.9581746 1065353216
-6.9532318 -13.700617 0.65394258 1106771968
-6.9716291 -13.71444 1.2046179 1095761920
-6.9858503 -13.716714 1.760605 1107820544
-7.0090137 -13.73789 2.3296547 1108082688
-1.1197804 -4.5530891 -1.3125247 1093664768
-7.0093036 -13.723386 2.898735 1111228416
-0.13674974 -3.0068457 -1.9546399 1073741824
-1.2033685 -4.6562371 -1.1523116 1065353216
-0.38673162 -3.3907237 -1.9606118 1065353216
-7.0399137 -13.666655 -0.42696819 1095761920
-0.69539517 -3.8643365 -1.9555913 1065353216
-7.0782795 -13.711038 0.11804125 1108606976
-1.1765517 -4.6014495 -1.9613032 1065353216
-7.0618324 -13.670827 0.65808606 1105199104
-1.1303378 -4.5258584 -1.7868569 1065353216
-7.0868134 -13.689533 1.2111882 1092616192
-7.0612082 -13.635346 1.7552623 1102053376
-7.0622845 -13.622248 2.3139079 1102053376
-1.1037104 -4.4706035 -1.3111634 1091567616
-7.0713425 -13.616501 2.8837233 1104150528
-0.15594502 -3.0035732 -1.9567105 1073741824
-1.2057912 -4.6021614 -1.1530795 1065353216
-0.39567727 -3.3662884 -1.9570125 1065353216
-7.0892382 -13.555811 -0.43042234 1092616192
-0.71657026 -3.8505216 -1.9555913 1065353216
-7.0819836 -13.530173 0.10496793 1107296256
-7.0731883 -13.497397 0.64102447 1105199104
-7.0974469 -13.519672 1.1896001 1098907648
-7.1054091 -13.517189 1.7407607 1109131264
-7.1163383 -13.519197 2.3008609 1107558400
-1.1184287 -4.4394112 -1.3108493 1082130432
-7.1298604 -13.520266 2.8707824 1111752704
-0.16952561 -2.9899724 -1.9556752 1073741824
-1.2120287 -4.5548949 -1.1537077 1065353216
-0.42256939 -3.3671954 -1.9606118 1065353216
-7.174017 -13.494926 -0.43063167 1098907648
-0.73547244 -3.8332958 -1.954828 1065353216
-7.1986775 -13.512609 0.10932563 1108606976
-7.1884651 -13.482858 0.64736164 1107558400
-1.1550721 -4.4525008 -1.7810072 1065353216
-7.2083635 -13.498175 1.1964833 1099431936
-7.2162161 -13.490653 1.7483932 1107558400
-7.2183299 -13.479385 2.3062599 1100480512
-1.1709017 -4.4621181 -1.311687 1065353216
-7.2306132 -13.483277 2.877512 1106771968
-0.17394868 -2.963748 -1.9504988 1073741824
-1.2094386 -4.4940243 -1.1546153 1065353216
-0.43381777 -3.3455629 -1.9579124 1065353216
-7.1609488 -13.284767 -0.44015685 1094713344
-0.7547707 -3.8155944 -1.9540648 1065353216
-7.2306213 -13.373475 0.1007844 1102577664
-7.2292466 -13.352489 0.63688087 1100480512
-1.0999743 -4.3172836 -1.7634579 1065353216
-7.2394629 -13.353328 1.180214 1092616192
-7.1791205 -13.250401 1.7056519 1102053376
-1.1664097 -4.4055376 -1.465523 1065353216
-6.8682408 -12.775163 2.1262989 1073741824
-7.0537891 -13.033783 2.7512081 1102053376
-0.19813097 -2.9659853 -1.9546399 1073741824
-1.2038604 -4.4300809 -1.1555927 1065353216
-0.45853671 -3.3428702 -1.9606118 1065353216
-7.0843019 -12.986519 -0.45533428 1092616192
-0.79171622 -3.8236597 -1.9594074 1073741824
-7.0487428 -12.921091 0.059123974 1099956224
-7.0479374 -12.901737 0.57862735 1101529088
-7.0615134 -12.907813 1.1060642 1091567616
-7.0342288 -12.854668 1.6262754 1104674816
-6.9453669 -12.708063 2.1235995 1084227584
-1.0797176 -4.2217817 -1.3073238 1086324736
-7.0371246 -12.827265 2.7030678 1106247680
-0.21800244 -2.9616504 -1.9567105 1073741824
-1.2066578 -4.3795271 -1.1562908 1073741824
-0.47216326 -3.3239694 -1.9588122 1065353216
-7.1181421 -12.853798 -0.46004447 1065353216
-0.80640632 -3.7991569 -1.9571178 1073741824
-1.2217296 -4.3930192 -0.84450674 1065353216
-1.1746219 -4.3188858 -1.7688202 1065353216
-1.2281957 -4.3927832 -0.52867621 1086324736
-1.1639714 -4.2996931 -1.6130461 1073741824
-1.2200654 -4.3771176 -0.37187651 1108869120
-7.0601649 -12.699364 2.1370966 1084227584
-1.0958796 -4.1934619 -1.3070796 1100480512
-7.1645665 -12.830255 2.7232556 1112014848
-0.23565879 -2.9539897 -1.9577457 1073741824
-1.2024785 -4.3213921 -1.1571634 1090519040
-0.49011299 -3.3113701 -1.9588122 1065353216
-1.2174181 -4.338542 -1.0029777 1111228416
-0.82032919 -3.7749734 -1.954828 1073741824
-1.2160271 -4.3312654 -0.84921318 1101529088
-1.1230023 -4.1986814 -1.9037354 1065353216
-1.2062984 -4.3135724 -0.69661361 1110966272
-1.2300829 -4.3431153 -0.53493357 1113587712
-1.2157689 -4.3176708 -0.3817986 1108082688
-1.1121994 -4.1707554 -1.4537997 1065353216
-7.1818328 -12.69452 2.1523933 1092616192
-1.0943588 -4.1406555 -1.3063116 1100480512
-7.2836185 -12.824114 2.7403378 1099431936
-0.25064814 -2.9433248 -1.9577457 1073741824
-1.1959089 -4.2597942 -1.1581057 1086324736
-0.49957782 -3.2878809 -1.9556628 1065353216
-1.2086533 -4.2736645 -1.0060133 1106247680
-0.84600163 -3.7663095 -1.9563545 1082130432
-1.2264149 -4.2944813 -0.85130495 1102053376
-1.1239738 -4.1494441 -1.897478 1077936128
-1.2067864 -4.2619896 -0.7017321 1099431936
-1.2274138 -4.2867365 -0.54244244 1105723392
-1.2181945 -4.2700515 -0.38904938 1109393408
-1.1173413 -4.1277571 -1.452125 1065353216
-7.3346515 -12.731208 2.1798372 1097859072
-1.0974934 -4.0965662 -1.3057183 1098907648
-7.406219 -12.816953 2.7579374 1109917696
-0.25912902 -2.9229064 -1.9546399 1073741824
-1.2039008 -4.2194834 -1.1585945 1088421888
-0.52645093 -3.2876942 -1.9592621 1065353216
-1.2167506 -4.2333007 -1.0074786 1110704128
-0.86587441 -3.7495029 -1.9559729 1082130432
-1.2323371 -4.2508368 -0.85409391 1103101952
-1.1709633 -4.164185 -1.9037354 1077936128
-1.2183874 -4.2266054 -0.70441329 1107820544
-1.1007056 -4.06428 -1.7381091 1073741824
-1.2415731 -4.2544899 -0.54525828 1114374144
-1.1013519 -4.0603061 -1.592826 1073741824
-1.2311349 -4.2363787 -0.39286557 1115815936
-1.1338047 -4.100966 -1.451497 1065353216
-7.4987617 -12.780484 2.2113304 1099956224
-1.0948048 -4.0441065 -1.3049504 1099431936
-7.5337076 -12.814895 2.7776079 1099956224
-0.27199054 -2.908695 -1.9536046 1073741824
-1.204326 -4.1695814 -1.1592926 1091567616
-0.54414672 -3.2747164 -1.9592621 1065353216
-1.2267826 -4.1962085 -1.0087347 1113325568
-0.88561821 -3.7325656 -1.9555913 1082130432
-1.2365897 -4.2056823 -0.85705721 1104150528
-1.204168 -4.1593852 -1.9062383 1077936128
-1.2296177 -4.1912317 -0.70709437 1108344832
-1.1297206 -4.0552468 -1.7393278 1077936128
-1.255407 -4.2222185 -0.54807401 1112276992
-1.1291789 -4.0496941 -1.5935231 1073741824
-1.2601194 -4.2247624 -0.39133909 1115815936
-1.1202252 -4.034039 -1.4482521 1104674816
-8.329298 -13.722398 2.5001676 1103626240
-1.1117976 -4.0191216 -1.3047758 1100480512
-8.3308392 -13.710291 3.097508 1110704128
-0.29399413 -2.906781 -1.9567105 1073741824
-1.2101743 -4.1278458 -1.1598161 1092616192
-0.55941385 -3.2584968 -1.9583623 1065353216
-1.2316279 -4.1527567 -1.0104095 1113849856
-0.91112554 -3.72335 -1.9571178 1077936128
-1.2523013 -4.1765728 -0.85827738 1105199104
-1.2991387 -4.236403 -1.9250104 1077936128
-1.2404794 -4.1558714 -0.70977551 1111490560
-1.1658883 -4.0554881 -1.7420089 1073741824
-1.2736678 -4.196239 -0.54963839 1113063424
-1.1425879 -4.0197597 -1.5921288 1082130432
-1.2713404 -4.189394 -0.39553687 1116995584
-1.1419146 -4.0153031 -1.4481474 1107820544
-8.4666119 -13.716908 2.5181637 1103626240
-1.1261499 -3.9908679 -1.3045315 1100480512
-8.4758472 -13.715015 3.1218371 1109131264
-0.31371054 -2.9015884 -1.958781 1073741824
-1.2191955 -4.0909719 -1.1602349 1091567616
-0.56982642 -3.2359827 -1.9556628 1065353216
-1.2323618 -4.1046386 -1.0123982 1114898432
-0.937801 -3.7154853 -1.9590259 1082130432
-1.2616944 -4.1394892 -0.86036915 1105199104
-1.4168651 -4.3405313 -1.9494143 1084227584
-1.2533811 -4.1236849 -0.71196914 1112801280
-1.1889282 -4.0380278 -1.7420089 1073741824
-1.2904932 -4.1686034 -0.55151564 1116471296
-1.1605397 -3.9961312 -1.5914315 1114636288
-1.2941204 -4.1696353 -0.39591846 1117913088
-1.1586059 -3.9900804 -1.4476241 1108082688
-8.6019478 -13.707036 2.53526 1105199104
-1.1463083 -3.9705119 -1.3044617 1100480512
-8.6166868 -13.712213 3.1440954 1109131264
-0.33107489 -2.8931653 -1.9598163 1073741824
-1.2363755 -4.0652218 -1.1604095 1094713344
-0.59668398 -3.2350464 -1.9592621 1065353216
-1.2508607 -4.080389 -1.0128169 1116471296
-0.94886935 -3.6871974 -1.9559729 1082130432
-1.2792258 -4.1134758 -0.86124068 1107558400
-1.449141 -4.3306866 -1.9512914 1084227584
-1.2720344 -4.0993328 -0.71294409 1112801280
-1.1680892 -3.9639058 -1.7332344 1073741824
-1.3010097 -4.1330953 -0.55495715 1116995584
-1.1770597 -3.9708376 -1.59056 1116471296
-1.3167509 -4.149725 -0.39630011 1118568448
-1.1775151 -3.9679391 -1.4473101 1107820544
-8.7471838 -13.708213 2.5559554 1104150528
-1.1650745 -3.9484534 -1.3043569 1100480512
-8.7615185 -13.712645 3.1679068 1109393408
-0.32698023 -2.8572125 -1.951534 1073741824
-1.2520874 -4.0378203 -1.1606189 1096810496
-0.60680294 -3.2123728 -1.9565628 1065353216
-1.2728413 -4.0607624 -1.0129216 1116995584
-0.96813226 -3.6697159 -1.9555913 1077936128
-1.2842253 -4.0717058 -0.86385536 1105199104
-1.4765346 -4.3143492 -1.9519172 1084227584
-1.2941519 -4.0795689 -0.71318787 1114374144
-1.1536973 -3.8996036 -1.7259221 1065353216
-1.3197044 -4.1084781 -0.55620861 1117388800
-1.1859567 -3.9360769 -1.5886425 1107296256
-1.3392315 -4.1296663 -0.3966817 1117913088
-1.2024155 -3.9535384 -1.4475194 1107820544
-8.8880959 -13.70187 2.574851 1104150528
-8.8960705 -13.698034 3.1870589 1108606976
-0.3416754 -2.8456378 -1.951534 1073741824
-1.2675416 -4.0103612 -1.1608284 1099956224
-0.63124233 -3.2079916 -1.9592621 1065353216
-1.2897015 -4.0347376 -1.0134449 1116471296
-0.99092841 -3.6567183 -1.9563545 1077936128
-1.4964528 -4.2885323 -1.9506657 1084227584
-1.306224 -4.0472393 -0.71538144 1108869120
-1.1929717 -3.9039655 -1.7293346 1065353216
-1.3455741 -4.0930305 -0.55558294 1116995584
-1.211892 -3.9231508 -1.5891654 1107296256
-1.35666 -4.1033225 -0.39858976 1118568448
-1.2247431 -3.9358251 -1.4475194 1108606976
-9.0391426 -13.706364 2.5973463 1104150528
-1.2232774 -3.9305711 -1.3047409 1093664768
-9.0381527 -13.691224 3.2093177 1110179840
-0.3538669 -2.8309507 -1.9504988 1073741824
-1.2927732 -3.9953072 -1.1607585 1101529088
-0.63859826 -3.1821439 -1.9556628 1065353216
-1.3163548 -4.0210776 -1.0131309 1116995584
-1.0161198 -3.6466005 -1.957881 1077936128
-1.5260766 -4.2749047 -1.9519172 1084227584
-1.222442 -3.8955812 -1.7307969 1065353216
-1.2322022 -3.9042699 -1.588991 1106247680
-1.2368855 -3.9055433 -1.446682 1108606976
-9.1860294 -13.708184 2.6189418 1104674816
-1.2530042 -3.9220295 -1.3049504 1093664768
-0.37570798 -2.8281682 -1.9536046 1073741824
-1.3173553 -3.98052 -1.1606888 1101529088
-0.66048706 -3.1744218 -1.9574625 1065353216
-1.3309985 -3.9937541 -1.013759 1115947008
-1.0469937 -3.6442833 -1.9613155 1082130432
-1.5500271 -4.2554259 -1.9519172 1084227584
-1.2342937 -3.8654499 -1.728847 1065353216
-1.2579778 -3.8909695 -1.589514 1106247680
-1.2634014 -3.8942137 -1.4471008 1107820544
-9.3282528 -13.69771 2.6378376 1104674816
-1.2776524 -3.9070518 -1.3050201 1090519040
-9.3372107 -13.694777 3.2605639 1102053376
-0.4046202 -2.8344107 -1.9598163 1073741824
-1.3411446 -3.9635439 -1.1606538 1102053376
-0.68194085 -3.166862 -1.9592621 1065353216
-1.3574278 -3.9797544 -1.0134449 1109655552
-1.0508685 -3.608022 -1.9563545 1101004800
-1.5769787 -4.238318 -1.9525429 1084227584
-1.2656183 -3.8601773 -1.7307969 1065353216
-1.2862426 -3.8805251 -1.5903856 1106247680
-1.2891498 -3.8806777 -1.4474148 1108082688
-9.4745846 -13.690371 2.6580832 1104674816
-1.3055111 -3.8969491 -1.3051946 1082130432
-9.494215 -13.700105 3.288516 1108082688
-0.40921646 -2.8104584 -1.9556752 1073741824
-1.3712566 -3.9540479 -1.1604444 1100480512
-0.70129651 -3.1557858 -1.9601619 1065353216
-1.0720515 -3.5928774 -1.9567361 1103101952
-1.5961946 -4.2119403 -1.9512914 1084227584
-1.2796135 -3.8329206 -1.7293346 1073741824
-1.3054872 -3.8591843 -1.590037 1106247680
-1.3199941 -3.8730371 -1.4481474 1107820544
-9.6313972 -13.693514 2.6819277 1105199104
-1.3481125 -3.9029386 -1.3057531 1065353216
-9.6355743 -13.684707 3.3097396 1109131264
-0.4285934 -2.804194 -1.9577457 1065353216
-1.392287 -3.933634 -1.1604793 1099956224
-0.71553856 -3.1386242 -1.9592621 1065353216
-1.5047109 -4.0620461 -1.0051758 1065353216
-1.0982376 -3.5835493 -1.9586443 1086324736
-1.6228826 -4.1944752 -1.9519172 1084227584
-1.3140012 -3.829756 -1.7317719 1073741824
-1.3336341 -3.8483198 -1.5909085 1107296256
-1.3456575 -3.8590539 -1.4484614 1105723392
-9.781167 -13.686223 2.7030733 1105199104
-1.3687807 -3.8826928 -1.3057183 1065353216
-9.788578 -13.68115 3.3356218 1107296256
-0.43786517 -2.7860627 -1.9556752 1073741824
-1.4197006 -3.9206481 -1.1603397 1099956224
-0.72709107 -3.1184335 -1.9574625 1065353216
-1.1154146 -3.5636036 -1.957881 1082130432
-1.6391194 -4.1648645 -1.95004 1084227584
-1.3406656 -3.8172648 -1.7327468 1065353216
-1.3617576 -3.8372126 -1.5917801 1106247680
-1.3633895 -3.8358221 -1.4481474 1107820544
-9.9428787 -13.690698 2.7282679 1105723392
-1.3932352 -3.8668356 -1.305788 1082130432
-9.9484072 -13.683365 3.3640914 1109393408
-0.45969808 -2.7824349 -1.958781 1073741824
-1.4536566 -3.9149525 -1.1600256 1097859072
-0.7487393 -3.1099195 -1.9592621 1065353216
-1.1272501 -3.5376558 -1.9555913 1077936128
-1.6655201 -4.1470647 -1.9506657 1084227584
-1.356793 -3.7926285 -1.7317719 1065353216
-1.3924899 -3.8288534 -1.5930003 1106247680
-1.3862121 -3.8184853 -1.4482521 1107296256
-10.092296 -13.678931 2.7489634 1105723392
-1.4189243 -3.8522897 -1.3058928 1086324736
-10.106249 -13.681082 3.3915262 1107558400
-0.47643405 -2.7728238 -1.9598163 1065353216
-1.4956381 -3.9179049 -1.159502 1098907648
-0.76000834 -3.0895696 -1.9574625 1065353216
-1.1414536 -3.5146129 -1.9540648 1077936128
-1.6865587 -4.1231647 -1.95004 1084227584
-1.3859241 -3.7827277 -1.7332344 1065353216
-1.4351844 -3.8335865 -1.5957892 1098907648
-1.415583 -3.8084238 -1.4488802 1105723392
-10.264189 -13.690392 2.777307 1096810496
-1.4472103 -3.8405156 -1.3060673 1084227584
-10.262023 -13.674343 3.4179258 1109393408
-0.46984735 -2.7372434 -1.951534 1065353216
-1.5217267 -3.9026005 -1.1593972 1096810496
-0.78414565 -3.0836489 -1.9601619 1065353216
-1.1659813 -3.5031643 -1.9555913 1077936128
-1.7418532 -4.1372352 -1.9575489 1065353216
-1.4150469 -3.7725685 -1.7346967 1065353216
-1.6891167 -4.0730643 -0.52273172 1088421888
-1.4580069 -3.8157272 -1.5959636 1073741824
-1.4489698 -3.8025386 -1.4498222 1104150528
-10.421076 -13.682761 2.8002524 1106247680
-1.4714314 -3.8240569 -1.3061371 1084227584
-10.422153 -13.670344 3.445878 1106771968
-0.48109558 -2.7218215 -1.9504988 1065353216
-1.5544856 -3.8944666 -1.1591181 1097859072
-0.79251963 -3.0602491 -1.9574625 1065353216
-1.1825138 -3.482821 -1.954828 1077936128
-1.7168409 -4.0650587 -0.83980036 1088421888
-1.770789 -4.1215758 -1.9588003 1065353216
-1.7160649 -4.0595655 -0.68150181 1090519040
-1.4548975 -3.7738507 -1.7381091 1065353216
-1.7336469 -4.0752282 -0.51772577 1088421888
-1.5440818 -3.8666456 -1.6043305 1073741824
-1.4729425 -3.7860477 -1.4500315 1104674816
-10.58106 -13.676435 2.8240967 1106247680
-1.4982674 -3.8103521 -1.3062767 1084227584
-10.59196 -13.674683 3.4774547 1108082688
-0.51322329 -2.7290134 -1.9577457 1073741824
-1.5872685 -3.8860281 -1.1588387 1097859072
-0.80597025 -3.0425618 -1.9565628 1065353216
-1.2069002 -3.4710121 -1.9563545 1077936128
-1.7575645 -4.062727 -0.83753431 1086324736
-1.7942759 -4.0998902 -1.9588003 1065353216
-1.747234 -4.0469837 -0.68003935 1090519040
-1.4759645 -3.754379 -1.7381091 1065353216
-1.7823914 -4.0812674 -0.51178128 1086324736
-1.584268 -3.8674617 -1.6067709 1073741824
-1.498181 -3.7708306 -1.4503455 1107296256
-10.747246 -13.679156 2.8506413 1106771968
-1.5386975 -3.8110368 -1.3067654 1082130432
-10.755796 -13.670217 3.5064421 1108082688
-0.53231049 -2.7217731 -1.9598163 1073741824
-1.6195272 -3.8777986 -1.1585596 1096810496
-0.82995868 -3.0361555 -1.9592621 1065353216
-1.220003 -3.4480069 -1.954828 1065353216
-1.8106998 -4.0730381 -0.83369946 1088421888
-1.8061903 -4.0670905 -1.9562974 1065353216
-1.7886966 -4.0462217 -0.67662704 1092616192
-1.8212924 -4.0772843 -0.5080269 1086324736
-1.6552457 -3.8992195 -1.6130461 1073741824
-1.5310538 -3.7646132 -1.4512876 1104674816
-1.8780092 -4.1290646 -0.15830399 1073741824
-1.5696481 -3.8011427 -1.3070097 1086324736
-10.923207 -13.671835 3.5375004 1107296256
-0.53771806 -2.7007015 -1.9567105 1065353216
-1.6578722 -3.8745451 -1.1581407 1096810496
-0.83204621 -3.0073395 -1.9547631 1065353216
-1.2388011 -3.4301832 -1.954828 1065353216
-1.8525363 -4.0717969 -0.83125907 1093664768
-1.8456746 -4.062295 -1.9600518 1065353216
-1.8336109 -4.0473661 -0.67272723 1090519040
-1.6214699 -3.8244994 -1.7566333 1065353216
-1.8608625 -4.0723691 -0.5042724 1086324736
-1.677183 -3.8783462 -1.6130461 1073741824
-1.5741751 -3.7676723 -1.4529624 1104150528
-1.8907502 -4.0953832 -0.16190316 1107820544
-1.6028382 -3.7943597 -1.3073238 1094713344
-11.093454 -13.669604 3.5685587 1107296256
-0.54057866 -2.676543 -1.9525694 1073741824
-1.6949251 -3.8694704 -1.1577567 1098907648
-0.86403215 -3.0090468 -1.9601619 1065353216
-1.2820561 -3.4376166 -1.9616972 1065353216
-1.8853767 -4.0595603 -0.83003891 1093664768
-1.8494982 -4.0202303 -1.9556715 1065353216
-1.882838 -4.0523176 -0.66809618 1090519040
-1.8991402 -4.0656457 -0.50083089 1088421888
-1.614692 -3.7674119 -1.4544277 1104150528
-1.9194877 -4.0784473 -0.16010357 1093664768
-1.6393898 -3.7896144 -1.3077078 1093664768
-11.254825 -13.655937 3.5959935 1107558400
-0.55671078 -2.6662419 -1.9536046 1073741824
-1.7320513 -3.8640296 -1.1573728 1099431936
-0.86613089 -2.979804 -1.9556628 1065353216
-1.2952777 -3.4137571 -1.9601706 1065353216
-1.92937 -4.0583978 -0.82742423 1091567616
-1.8972008 -4.0233564 -1.9613032 1065353216
-1.9253266 -4.049665 -0.66468382 1090519040
-1.9471805 -4.0684032 -0.49519923 1088421888
-1.6455277 -3.7567792 -1.4551605 1103101952
-11.438146 -13.680488 2.9613171 1107558400
-1.6802318 -3.7887762 -1.3081965 1093664768
-11.434257 -13.658508 3.6301579 1107558400
-0.58095837 -2.6640329 -1.9577457 1073741824
-1.771523 -3.8615992 -1.156919 1099956224
-0.88716483 -2.9699903 -1.9574625 1065353216
-1.3078328 -3.3903027 -1.9586443 1065353216
-1.9777205 -4.0610161 -0.82428664 1091567616
-1.9250077 -4.0069547 -1.9625547 1065353216
-1.9631532 -4.0429368 -0.66200274 1090519040
-1.9906483 -4.0670338 -0.49050626 1090519040
-1.6814833 -3.7520351 -1.4563118 1104674816
-11.60945 -13.672359 2.9878612 1107558400
-1.714132 -3.7804494 -1.3085107 1093664768
-11.613444 -13.662819 3.6648393 1107558400
-0.58848357 -2.6455791 -1.9556752 1073741824
-1.8144851 -3.8610451 -1.1563954 1101004800
-0.91054863 -2.9631257 -1.9601619 1065353216
-1.3318042 -3.3773944 -1.9601706 1065353216
-2.0200236 -4.0580964 -0.82184625 1091567616
-1.9364582 -3.9730792 -1.9600518 1065353216
-2.0072572 -4.0408497 -0.65834665 1090519040
-2.034827 -4.0646405 -0.48581317 1077936128
-1.7151902 -3.7436049 -1.4572539 1103101952
-11.781783 -13.667484 3.0153055 1107558400
-1.7518065 -3.7765436 -1.3089294 1093664768
-11.790029 -13.657573 3.6974502 1107820544
-0.61273623 -2.6429977 -1.9598163 1073741824
-1.8599031 -3.8633952 -1.1558021 1101004800
-0.91761142 -2.9392972 -1.9574625 1065353216
-1.3496503 -3.3592589 -1.9601706 1065353216
-2.0687177 -4.0597305 -0.81870866 1090519040
-1.9498652 -3.9425342 -1.9581746 1065353216
-2.0622835 -4.0499845 -0.65274066 1092616192
-1.7598562 -3.7465277 -1.4590334 1102053376
-11.958297 -13.659903 3.0431995 1107820544
-1.7915305 -3.7731144 -1.3093833 1093664768
-11.974616 -13.66223 3.7336855 1107820544
-0.60614949 -2.610981 -1.9525694 1073741824
-1.9031641 -3.861928 -1.1552786 1101004800
-0.92687637 -2.9185777 -1.9556628 1077936128
-1.3536899 -3.3269081 -1.9563545 1065353216
-2.1026692 -4.0476222 -0.81731421 1091567616
-1.9806352 -3.9278233 -1.9600518 1065353216
-2.1024296 -4.0427818 -0.64981574 1092616192
-1.8009021 -3.744287 -1.4604987 1101529088
-12.146591 -13.661268 3.0746922 1107820544
-1.8299106 -3.7678936 -1.3098021 1093664768
-12.139798 -13.641234 3.7616377 1093664768
-0.61944205 -2.5971243 -1.9525694 1073741824
-1.9378694 -3.8517358 -1.1549643 1101004800
-0.94518554 -2.9051044 -1.9565628 1065353216
-1.3716389 -3.3081543 -1.9563545 1065353216
-2.1565413 -4.0518336 -0.81365365 1092616192
-1.9861223 -3.887779 -1.9562974 1065353216
-2.1541598 -4.0461097 -0.64494097 1084227584
-2.1697912 -4.0528393 -0.29860589 1084227584
-1.839686 -3.7383199 -1.4617548 1100480512
-12.335548 -13.660631 3.1061859 1106247680
-1.8770909 -3.7705235 -1.3104304 1093664768
-12.332864 -13.640048 3.7989073 1107296256
-0.64076322 -2.5914493 -1.9556752 1073741824
-1.9760457 -3.8433702 -1.1545804 1099431936
-0.95167303 -2.8812125 -1.9538633 1065353216
-1.4013625 -3.2995398 -1.9594074 1065353216
-2.2013452 -4.0478864 -0.81103897 1084227584
-2.0541236 -3.9077902 -1.9663091 1065353216
-2.1863804 -4.0292745 -0.64347857 1084227584
-2.2232053 -4.0625539 -1.8297548 1065353216
-2.2127712 -4.050487 -0.46704105 0
-1.8751013 -3.7297854 -1.4628015 1099431936
-12.529425 -13.661965 3.1390285 1106247680
-1.9229974 -3.7712786 -1.3110238 1093664768
-12.527173 -13.641809 3.837213 1107296256
-0.64792609 -2.5724397 -1.9536046 1073741824
-2.0249286 -3.8466506 -1.1539172 1097859072
-0.97510302 -2.8732164 -1.9565628 1065353216
-1.4302117 -3.2915928 -1.9624604 1065353216
-2.2477255 -4.0448251 -0.80825001 1084227584
-2.0755634 -3.8847258 -1.9663091 1065353216
-2.2378249 -4.032228 -0.63860375 1084227584
-2.5702746 -4.3364239 -1.8838649 1065353216
-2.2090323 -4.0022421 -0.47267267 0
-1.9173818 -3.7282271 -1.4643716 1100480512
-12.70676 -13.645394 3.1664724 1106771968
-1.9705411 -3.7728903 -1.3116521 1093664768
-12.725613 -13.649153 3.8775887 1107558400
-0.66601408 -2.5641897 -1.9556752 1073741824
-2.0760267 -3.8501625 -1.1532191 1097859072
-0.99528348 -2.8627746 -1.9583623 1077936128
-1.421793 -3.248502 -1.9555913 1065353216
-2.3142788 -4.0606933 -0.80302066 1065353216
-2.0973892 -3.8609183 -1.9663091 1065353216
-2.3708043 -4.1074719 -0.62032342 1065353216
-1.9662249 -3.7310259 -1.4663603 1101529088
-12.896091 -13.637442 3.197516 1104674816
-2.007364 -3.7651691 -1.312036 1093664768
-12.911285 -13.637644 3.9122705 1105199104
-0.66717297 -2.539911 -1.951534 1073741824
-2.1243632 -3.850435 -1.1525909 1099431936
-1.004207 -2.8413203 -1.9565628 1065353216
-1.439193 -3.2292747 -1.9555913 1065353216
-2.0631888 -3.7868159 -1.9544201 1065353216
-13.042356 -13.606522 2.5143003 1101529088
-2.0137746 -3.7319541 -1.4682444 1100480512
-13.039496 -13.585908 3.2141623 1107296256
-2.0566881 -3.7671576 -1.3126992 1093664768
-13.047046 -13.579126 3.9288349 1107558400
-0.69408745 -2.5387986 -1.9567105 1073741824
-2.1683807 -3.8462012 -1.1520673 1100480512
-1.0275204 -2.832778 -1.9592621 1065353216
-1.4505813 -3.2047184 -1.9540648 1065353216
-2.0606656 -3.7421491 -1.9494143 1065353216
-2.6112731 -4.2258525 -1.8785026 1065353216
-13.050833 -13.43446 2.4933114 1100480512
-2.0674882 -3.7376485 -1.4705472 1100480512
-13.065166 -13.433714 3.1952662 1106771968
-2.1062005 -3.7686033 -1.3133624 1093664768
-13.085537 -13.433805 3.9107175 1107558400
-0.70945746 -2.5272143 -1.9577457 1073741824
-2.2179842 -3.847388 -1.151404 1098907648
-1.0302949 -2.8060477 -1.9556628 1065353216
-1.4849876 -3.2012818 -1.9586443 1065353216
-2.0869296 -3.7242405 -1.9506657 1065353216
-2.6354675 -4.1982965 -1.8785026 1065353216
-2.5392537 -4.113225 -0.42198792 0
-13.20126 -13.387931 2.5093393 1103626240
-2.1043441 -3.7289171 -1.4716986 1098907648
-13.209275 -13.38154 3.2123628 1107296256
-2.1574061 -3.7708147 -1.3140604 1093664768
-13.219694 -13.377234 3.9277997 1107558400
-0.72445494 -2.5158601 -1.958781 1073741824
-2.2819283 -3.8591766 -1.1504267 1095761920
-1.0413088 -2.787431 -1.9547631 1065353216
-1.5020568 -3.1816142 -1.9586443 1065353216
-2.1136231 -3.7055128 -1.9519172 1065353216
-2.6588709 -4.1712685 -1.8785026 1065353216
-8.2033339 -8.9334621 0.7559638 1090519040
-13.209507 -13.222276 2.4894953 1101529088
-2.1523683 -3.7283201 -1.4735827 1098907648
-13.205398 -13.201138 3.1844687 1106771968
-2.218909 -3.7821825 -1.3150029 1091567616
-13.215075 -13.196235 3.8951883 1108606976
-0.72499204 -2.4914973 -1.9546399 1073741824
-2.3416402 -3.8663332 -1.1495541 1094713344
-1.0762776 -2.7885513 -1.9610617 1065353216
-1.5010351 -3.1465733 -1.9540648 1065353216
-2.1582935 -3.7018967 -1.956923 1065353216
-8.2577019 -8.8732109 0.30905232 1100480512
-2.5827527 -4.0586529 -1.8624159 1073741824
-8.3205414 -8.9178314 0.76847851 1088421888
-13.050488 -12.912501 2.4269097 1103626240
-2.2035995 -3.7297759 -1.4756762 1096810496
-13.037481 -12.884299 3.1075354 1106247680
-2.3331928 -3.8361008 -1.3171321 1065353216
-13.053651 -12.88506 3.8082252 1108344832
-0.7371242 -2.4771528 -1.9546399 1073741824
-2.4215386 -3.8895173 -1.1482277 1093664768
-1.0874892 -2.769242 -1.9601619 1077936128
-1.5237411 -3.1318381 -1.9555913 1065353216
-8.4249401 -8.9102983 -0.12111404 1097859072
-2.1485429 -3.6521614 -1.9506657 1065353216
-8.4543018 -8.9232807 0.3314763 1103101952
-2.6347187 -4.055491 -1.867047 1077936128
-8.4637661 -8.9224892 0.78631198 1086324736
-13.06724 -12.755254 2.4097371 1101004800
-2.2642229 -3.7383361 -1.4783976 1097859072
-13.074863 -12.74883 3.0940385 1106247680
-13.093496 -12.747316 3.7926955 1107296256
-0.74915618 -2.462724 -1.9546399 1073741824
-2.5013833 -3.9124033 -1.1469014 1082130432
-1.0985483 -2.749876 -1.9592621 1077936128
-8.4846001 -8.8559618 -0.5666005 1091567616
-1.5429388 -3.1149023 -1.9563545 1065353216
-8.5078154 -8.8636055 -0.11815085 1093664768
-2.1865227 -3.643549 -1.9544201 1065353216
-8.5219841 -8.8666391 0.33342621 1095761920
-2.6929562 -4.0568132 -1.8726529 1082130432
-8.6182899 -8.9373245 0.80664861 1086324736
-13.23866 -12.72684 2.4318709 1099431936
-2.3307822 -3.7519038 -1.4815378 1095761920
-13.27423 -12.743293 3.1286807 1106247680
-13.283849 -12.738387 3.8304834 1094713344
-0.76677549 -2.4534631 -1.9567105 1073741824
-8.4976645 -8.7605486 -1.0123084 1099956224
-1.1000478 -2.7234886 -1.9556628 1077936128
-8.5765829 -8.8163137 -0.56419301 1091567616
-1.5685363 -3.1022718 -1.9586443 1065353216
-8.6292734 -8.8505926 -0.11065545 1097859072
-2.2342424 -3.6414146 -1.9600518 1065353216
-8.6477432 -8.8540602 0.34439442 1096810496
-3.3654594 -4.557765 -1.9755106 1065353216
-8.7426968 -8.9225149 0.8204149 1090519040
-2.4386165 -3.8000741 -1.6574955 1095761920
-13.382377 -12.678154 2.4475174 1101529088
-2.3827033 -3.7514746 -1.4836313 1094713344
-13.383368 -12.661942 3.1363292 1106247680
-13.428782 -12.685947 3.8517065 1082130432
-0.78767049 -2.4460962 -1.9598163 1073741824
-8.7496986 -8.8497152 -1.0079104 1100480512
-1.1107535 -2.7040777 -1.9547631 1077936128
-8.6840572 -8.7882862 -0.56073886 1084227584
-1.5726655 -3.0721898 -1.9555913 1065353216
-8.7446499 -8.8283043 -0.10403159 1093664768
-2.2851834 -3.6412256 -1.9663091 1065353216
-8.7691555 -8.8363953 0.35463139 1095761920
-3.3516746 -4.4926634 -1.9691734 1065353216
-8.8858805 -8.9211807 0.83793533 1086324736
-2.4894006 -3.7973847 -1.6608075 1091567616
-13.388656 -12.513883 2.4284365 1101529088
-2.4519553 -3.7641833 -1.486876 1091567616
-13.368744 -12.481145 3.1075354 1106247680
-2.5675333 -3.8532221 -1.320483 1086324736
-13.424188 -12.512786 3.8216839 1082130432
-0.80856395 -2.4385202 -1.9629221 1073741824
-8.8028889 -8.7767105 -1.0079802 1100480512
-1.1304692 -2.6918769 -1.9565628 1077936128
-8.9340858 -8.8720045 -0.54775953 1090519040
-1.5949887 -3.0567873 -1.9571178 1065353216
-8.9820662 -8.9012299 -0.083811544 1082130432
-2.3053048 -3.6159611 -1.9663091 1065353216
-8.9203978 -8.8408098 0.36949942 1095761920
-5.8109474 -6.3818607 -2.3498933 1065353216
-9.0326347 -8.9206896 0.85608184 1086324736
-2.6701713 -3.8965442 -1.6785872 1073741824
-13.379492 -12.33917 2.405921 1101004800
-2.5607851 -3.8069701 -1.4927377 1065353216
-13.367628 -12.31319 3.0832405 1106247680
-2.6802673 -3.897712 -1.3225075 1065353216
-13.372344 -12.304444 3.7761316 1098907648
-0.80815136 -2.4140716 -1.958781 1073741824
-9.0635157 -8.8659163 -1.0034425 1101004800
-1.131706 -2.665098 -1.9529635 1077936128
-9.0283432 -8.8296947 -0.54524744 1091567616
-1.6172376 -3.0411859 -1.9586443 1065353216
-9.1015844 -8.8781013 -0.076838993 1094713344
-2.325249 -3.5905564 -1.9663091 1065353216
-9.1238708 -8.8837576 0.39241096 1093664768
-5.9503598 -6.4099636 -2.3654926 1065353216
-13.401856 -12.203375 1.7214774 1094713344
-6.4985604 -6.8280196 -2.100421 1073741824
-13.391856 -12.183228 2.3891296 1103101952
-5.8567762 -6.3230224 -1.7100365 1102053376
-13.369504 -12.149412 3.0602956 1105723392
-5.8494987 -6.3113523 -1.3920379 1107820544
-13.354961 -12.125815 3.7430024 1106771968
-0.81362152 -2.3944299 -1.9567105 1073741824
-9.0550013 -8.7431622 -1.0048736 1104150528
-1.1697428 -2.6669359 -1.9601619 1077936128
-9.2633724 -8.8948803 -0.53341949 1091567616
-1.6331859 -3.0205989 -1.9586443 1065353216
-9.2781448 -8.8974152 -0.063591383 1094713344
-2.345015 -3.5650129 -1.9663091 1065353216
-9.270174 -8.8795261 0.40630397 1096810496
-5.9897208 -6.3590436 -2.3654926 1065353216
-13.414079 -12.048602 1.7080241 1096810496
-13.371595 -12.003809 2.3647063 1101004800
-5.9795861 -6.3371024 -1.7155842 1109131264
-13.372909 -11.988543 3.0382504 1105723392
-5.967598 -6.3218722 -1.3937831 1107296256
-13.351151 -11.959726 3.7150502 1102577664
-0.83737898 -2.3888204 -1.9608516 1073741824
-9.0548372 -8.6281824 -1.0060953 1100480512
-1.1830889 -2.6494823 -1.9601619 1077936128
-9.5204954 -8.9728661 -0.52023083 1086324736
-1.6427315 -2.995158 -1.9571178 1065353216
-9.5094662 -8.9555664 -0.044417042 1094713344
-2.3646019 -3.5393331 -1.9663091 1065353216
-9.4596663 -8.9059858 0.42677805 1095761920
-13.407525 -11.881119 1.6911291 1096810496
-13.384023 -11.85126 2.3486781 1104150528
-6.0694585 -6.3244743 -1.7189337 1106771968
-13.373233 -11.82701 3.0157552 1105199104
-6.0686245 -6.3177738 -1.3951443 1107820544
-13.364264 -11.808192 3.6933093 1106771968
-0.84569913 -2.3713777 -1.9598163 1073741824
-9.056777 -8.5159931 -1.0072472 1104150528
-1.186951 -2.6249309 -1.9574625 1077936128
-9.6816339 -8.9746971 -0.5134272 1090519040
-1.6709399 -2.9837942 -1.9601706 1065353216
-9.6942167 -8.9751158 -0.03047218 1094713344
-2.3840098 -3.5135164 -1.9663091 1065353216
-9.6388988 -8.9218845 0.445546 1093664768
-3.5209446 -4.3580637 -1.9755106 1065353216
-13.419951 -11.729622 1.6783015 1096810496
-13.380862 -11.688536 2.3292158 1101004800
-6.1755338 -6.3227797 -1.7233299 1104150528
-13.378276 -11.670671 2.9950595 1107558400
-6.1827884 -6.322072 -1.3967849 1112014848
-13.393043 -11.669688 3.6772628 1106247680
