# .PCD v0.7 - Point Cloud Data file format
VERSION 0.7
FIELDS x y z rgba
SIZE 4 4 4 4
TYPE F F F U
COUNT 1 1 1 1
WIDTH 1130
HEIGHT 1
VIEWPOINT 0 0 0 1 0 0 0
POINTS 1130
DATA ascii
10.291589 -14.469802 3.1591067 1092616192
2.7109003 -2.881572 -1.915817 1077936128
9.0560656 -12.651599 -0.98578072 1073741824
2.9001319 -3.1755905 -1.9021245 1073741824
8.998024 -12.57579 -0.4945862 1106247680
3.1882572 -3.6228328 -1.899875 1065353216
8.9494085 -12.518846 -0.0064171758 1086324736
3.6062491 -4.2716594 -1.8987294 1065353216
8.914258 -12.47804 0.48210678 1084227584
4.1237164 -5.0774331 -1.8668032 0
8.9010162 -12.471029 0.97747505 1084227584
10.175925 -14.464702 1.9399651 1109917696
10.167753 -14.467801 2.53526 1095761920
9.0850086 -12.797203 -1.4837677 1090519040
10.159277 -14.470426 3.1399541 1094713344
2.7025845 -2.900728 -1.9189229 1077936128
9.0223293 -12.782781 -0.98417509 1073741824
2.8835616 -3.1862652 -1.9021245 1073741824
8.9582653 -12.696402 -0.49039933 1106771968
3.1702442 -3.6390898 -1.9006382 1065353216
8.9269772 -12.661175 0.0029957092 1086324736
3.5815835 -4.287509 -1.8987294 1065353216
8.887578 -12.613132 0.49429366 1084227584
4.0813756 -5.0763006 -1.8638784 0
8.8932219 -12.640298 0.99937594 1084227584
10.043374 -14.463336 1.9258455 1110704128
10.026099 -14.452006 2.5145643 1095761920
9.0349426 -12.900409 -1.4848149 1090519040
10.022202 -14.461732 3.1182137 1094713344
2.6878893 -2.910064 -1.9189229 1077936128
8.9722033 -12.88566 -0.98312795 1073741824
2.8814583 -3.2199118 -1.9084232 1073741824
8.9310036 -12.8343 -0.48506108 1106771968
3.1526027 -3.654916 -1.9014015 1065353216
8.9029598 -12.80374 0.012408474 1082130432
3.5574284 -4.3027964 -1.8987294 1065353216
8.8731318 -12.770257 0.50964928 1084227584
4.0518398 -5.0949717 -1.8638784 0
8.8802891 -12.800335 1.0197123 1084227584
9.9060459 -14.452487 1.9098176 1110704128
9.8933392 -14.44814 2.497468 1095761920
9.009264 -13.044186 -1.4866997 1090519040
9.8958893 -14.468192 3.1016488 1094713344
2.6588614 -2.8963249 -1.9116759 1065353216
8.9653196 -13.059774 -0.98061484 1073741824
2.8666408 -3.2337701 -1.909323 1073741824
8.9158955 -12.994445 -0.47836211 1106771968
3.1368985 -3.673974 -1.902928 1065353216
8.8941336 -12.97363 0.024610261 1082130432
3.53317 -4.3179188 -1.8987294 1065353216
8.887125 -12.981387 0.53256071 1084227584
4.046453 -5.1544447 -1.8697281 0
8.8676023 -12.964105 1.0406746 1084227584
9.7720299 -14.450234 1.895698 1109393408
9.7555828 -14.439601 2.4790223 1084227584
8.9923868 -13.209949 -1.4890034 1088421888
9.7502937 -14.447073 3.0762849 1094713344
2.3391812 -2.4080269 -1.7553492 1073741824
8.9271297 -13.191319 -0.97900921 1073741824
2.8650501 -3.2713604 -1.9165214 1073741824
8.8946247 -13.157584 -0.47166309 1107296256
3.1184611 -3.689914 -1.9036912 1065353216
8.8727922 -13.136381 0.035766225 1082130432
3.5075572 -4.3336387 -1.8987294 1065353216
8.8686066 -13.144116 0.54840374 1084227584
4.0341792 -5.2038755 -1.8741153 0
8.8456316 -13.125817 1.0606982 1077936128
9.6333742 -14.438392 1.8796695 1111228416
9.6294756 -14.448138 2.4655249 1094713344
8.9746017 -13.377779 -1.4913421 1088421888
9.6110277 -14.439261 3.0550618 1094713344
2.324569 -2.4101102 -1.7537963 1082130432
8.9367952 -13.409936 -0.97565836 1073741824
2.83534 -3.2620158 -1.9111226 1073741824
8.8735991 -13.319722 -0.46496406 1104150528
3.0912924 -3.6925814 -1.9014015 1065353216
8.866044 -13.322055 0.049362522 1077936128
3.4824615 -4.3487978 -1.8987294 1065353216
8.852107 -13.318708 0.56570923 1084227584
4.041738 -5.2874146 -1.8833774 0
9.5144281 -14.441016 1.2937855 1096810496
9.4932833 -14.421912 1.8628784 1111228416
9.4896832 -14.432157 2.4457293 1094713344
8.9374361 -13.516764 -1.4930873 1088421888
9.4786491 -14.435375 3.0359087 1093664768
2.3109617 -2.4137332 -1.752761 1090519040
8.9543238 -13.636985 -0.97209805 1073741824
2.8117893 -3.2624445 -1.9084232 1073741824
8.8823767 -13.53071 -0.45522961 1104150528
3.0871758 -3.7315898 -1.9075074 1065353216
8.8671961 -13.525391 0.064701892 1082130432
3.4578912 -4.3634086 -1.8987294 1065353216
8.8449993 -13.503041 0.58472085 1084227584
9.3899488 -14.443684 1.2840863 1096810496
9.3637791 -14.421071 1.8499035 1111228416
9.3515072 -14.416575 2.4263835 1094713344
8.9826984 -13.79899 -1.4977297 1088421888
9.3481436 -14.427247 3.0162387 1093664768
2.3015366 -2.4237528 -1.7537963 1095761920
8.8903179 -13.734866 -0.97119051 1073741824
2.8024747 -3.2859876 -1.9120224 1073741824
8.9154902 -13.793776 -0.44245961 1106247680
3.0643198 -3.7404344 -1.9067441 1065353216
8.8421087 -13.683243 0.075509168 1082130432
3.4325886 -4.3782201 -1.8987294 1065353216
8.8444271 -13.708051 0.60641348 1084227584
3.9788709 -5.3244591 -1.8833774 0
9.2525282 -14.427881 1.2709459 1096810496
9.2341242 -14.412614 1.8357836 1111752704
9.2207747 -14.411546 2.410187 1094713344
9.2205696 -14.427721 2.9991565 1093664768
2.275383 -2.4054041 -1.7460318 1099431936
2.7924609 -3.3097765 -1.9156216 1073741824
8.8450584 -13.882856 -0.44026151 1086324736
3.0414262 -3.7491057 -1.9059809 1065353216
8.8742571 -13.949881 0.097123839 1065353216
3.4071834 -4.3928552 -1.8987294 1065353216
8.8413544 -13.913667 0.62810636 1084227584
3.9468462 -5.3428845 -1.8833774 0
9.1069174 -14.395389 1.2549897 1095761920
9.1016016 -14.402678 1.821282 1110704128
9.0914679 -14.407054 2.3944404 1094713344
9.0838413 -14.410286 2.9768987 1093664768
2.2352893 -2.3615382 -1.7305026 1098907648
2.7783587 -3.3267586 -1.9174212 1073741824
8.8570766 -14.1195 -0.42916629 1096810496
3.0242743 -3.7678683 -1.9075074 1065353216
8.8307457 -14.089092 0.10583947 1065353216
3.3816764 -4.4073119 -1.8987294 1065353216
8.825079 -14.100826 0.64711797 1084227584
3.9146936 -5.3610859 -1.8833774 0
8.9718132 -14.378759 1.2421621 1095761920
8.9657669 -14.384714 1.8052541 1110966272
9.0301619 -14.522176 2.4106369 1084227584
9.0268955 -14.533274 2.9981213 1086324736
2.2202404 -2.3611076 -1.7284321 1101004800
2.7546387 -3.3266265 -1.9147218 1073741824
3.0031397 -3.7796671 -1.9075074 1065353216
3.3560696 -4.4215908 -1.8987294 1065353216
8.788311 -14.255382 0.66149855 1073741824
8.8420944 -14.369559 1.230899 1098907648
8.8334074 -14.370677 1.7903711 1109393408
8.8887053 -14.49369 2.3890414 1084227584
8.8904467 -14.513916 2.975863 1084227584
2.2033904 -2.3571553 -1.7253262 1102053376
2.7365911 -3.3365538 -1.9147218 1073741824
2.9856796 -3.7982149 -1.9090339 1065353216
8.7203617 -14.356001 0.66832316 1065353216
8.7128792 -14.359216 1.2196356 1098907648
8.7119112 -14.374448 1.7796859 1110966272
8.7634087 -14.486602 2.3737452 1084227584
12.130189 -20.721163 -1.6299839 1099431936
8.7665892 -14.515424 2.9603338 1084227584
2.185725 -2.3513448 -1.7217027 1101529088
2.7240026 -3.3566582 -1.9174212 1073741824
12.489363 -21.567032 0.0045941863 1112014848
2.9704325 -3.8198404 -1.9113237 1065353216
8.6219387 -14.39553 0.6668607 1065353216
8.5809669 -14.336014 1.2064952 1098907648
8.5898066 -14.375456 1.7686189 1110966272
8.6215096 -14.452201 2.3512499 1088421888
10.469863 -17.937943 -1.5734731 1084227584
8.6445761 -14.512892 2.9442868 1084227584
2.1711709 -2.3503439 -1.7196321 1106771968
2.9471064 -3.8277884 -1.9105604 1065353216
8.4839783 -14.365325 0.65564871 1065353216
3.7856548 -5.4312038 -1.8833774 0
8.4556122 -14.328633 1.1961704 1098907648
8.4640436 -14.362006 1.7548805 1111490560
8.4678011 -14.392323 2.3224561 1093664768
10.31369 -17.925386 -1.5720071 1084227584
8.487421 -14.447253 2.9090877 1073741824
2.1563909 -2.3493645 -1.7175616 1109917696
10.38658 -18.205353 -0.89021134 1073741824
2.1888528 -2.4139791 -1.6672757 1082130432
13.035021 -23.336224 0.099950291 1111752704
2.9273615 -3.8425336 -1.9113237 1065353216
3.2533133 -4.4765697 -1.8987294 1065353216
8.3595591 -14.358551 0.64784908 1065353216
8.3334341 -14.325435 1.1867844 1098907648
8.33463 -14.345215 1.7403792 1110966272
8.3429327 -14.384686 2.3076093 1093664768
10.162437 -17.927271 -1.5708203 1088421888
8.3933649 -14.500367 2.9101229 1065353216
2.1399086 -2.3448164 -1.7144558 1110441984
10.269927 -18.278885 -0.89000189 1073741824
2.1674509 -2.4008832 -1.6623267 1084227584
13.01669 -23.691481 0.11606977 1115422720
2.90749 -3.8571534 -1.9120868 1065353216
3.2272263 -4.4899511 -1.8987294 1065353216
8.2535686 -14.386102 0.64492416 1065353216
8.207181 -14.312386 1.1758338 1098907648
8.2111244 -14.337789 1.7281674 1110441984
8.2185202 -14.375974 2.2927625 1093664768
10.115371 -18.133102 -1.5736476 1092616192
8.2832346 -14.521799 2.9018407 1065353216
2.1252639 -2.3435698 -1.7123853 1110179840
2.148021 -2.3910549 -1.6582776 1082130432
12.346401 -22.754648 0.056406718 1113587712
2.2408614 -2.5794525 -1.6319792 1065353216
8.1581783 -14.434149 0.64492416 1065353216
8.0920305 -14.319452 1.1686379 1098907648
8.0880661 -14.329306 1.7159556 1111490560
8.0954418 -14.367937 2.2783656 1093664768
10.101452 -18.410742 -1.5778711 1073741824
8.1645603 -14.525063 2.888382 0
2.114095 -2.3491273 -1.7123853 1110179840
2.1365199 -2.39677 -1.6582776 1082130432
12.969466 -24.409815 0.14862274 1095761920
2.2193799 -2.5681934 -1.628163 1084227584
3.1747735 -4.5161638 -1.8987294 1065353216
3.6713715 -5.5337672 -1.8882521 0
7.9666882 -14.304287 1.1576875 1098907648
7.9689145 -14.326821 1.7052702 1110966272
7.965776 -14.338428 2.2590201 1093664768
7.9716449 -14.37455 2.8293715 1088421888
2.0944629 -2.3372216 -1.7072089 1110179840
7.8832598 -14.289207 -0.97091126 1073741824
2.1232812 -2.3988965 -1.6573777 1082130432
7.8960137 -14.33367 -0.44256434 1077936128
2.1958537 -2.5512691 -1.623202 1084227584
3.6516788 -5.5786543 -1.892152 0
7.8433957 -14.28512 1.1464242 1099956224
7.8586345 -14.341034 1.6984013 1112014848
7.8361468 -14.31244 2.2405741 1096810496
7.8302898 -14.318449 2.7993484 1093664768
2.0811257 -2.3371992 -1.7056559 1109393408
2.1153631 -2.4113407 -1.6591774 1082130432
12.924951 -25.163446 0.18316446 1096810496
2.1866007 -2.5644085 -1.6247284 1084227584
3.122623 -4.5413289 -1.8987294 1065353216
7.7284493 -14.28745 1.1389154 1098907648
7.7273774 -14.303543 1.6808468 1112539136
7.7263217 -14.325848 2.2324758 1098907648
7.713985 -14.318101 2.7858896 1093664768
2.0732758 -2.3494484 -1.7077265 1108869120
2.1094935 -2.4291871 -1.6623267 1084227584
12.894398 -25.544292 0.20053993 1096810496
2.1722293 -2.5668302 -1.6239651 1084227584
7.6087961 -14.278087 1.1295294 1098907648
7.6094441 -14.298049 1.6701614 1113063424
7.6059828 -14.315394 2.2185287 1097859072
7.5939493 -14.308023 2.7698431 1094713344
2.0693223 -2.3704433 -1.7123853 1104150528
2.1115355 -2.464746 -1.669975 1073741824
12.807509 -25.813307 0.21142589 1097859072
2.1570492 -2.5673547 -1.6228204 1084227584
7.4945054 -14.2785 1.1220204 1099956224
7.4967847 -14.302296 1.6617659 1111490560
7.4828773 -14.29683 2.2027822 1097859072
2.2020772 -2.6799808 -1.2706389 0
7.4783592 -14.305731 2.7563844 1094713344
2.0706692 -2.4037888 -1.7206675 1110704128
2.1011207 -2.4737587 -1.6708748 1077936128
2.1370757 -2.5570111 -1.6193858 1084227584
2.167829 -2.6280942 -1.5602052 1077936128
7.3724442 -14.259949 1.1113828 1098907648
7.3771615 -14.289498 1.6499356 1114112000
7.3682795 -14.295009 2.1915348 1097859072
2.1747124 -2.655019 -1.2700455 1077936128
7.367825 -14.313075 2.7460315 1094713344
2.0551732 -2.4001303 -1.7180793 1109655552
2.1095176 -2.5254908 -1.6825722 1084227584
2.1149113 -2.5410895 -1.6148064 1084227584
2.1483045 -2.6194789 -1.5577022 1090519040
8.5213137 -17.109144 0.96129692 1065353216
7.250946 -14.240356 1.1007453 1099956224
7.2603855 -14.281088 1.6392504 1113587712
7.258718 -14.296569 2.1816368 1099956224
7.1180496 -13.987992 -1.485862 1077936128
7.2489767 -14.300068 2.729985 1095761920
2.0359187 -2.387476 -1.7129029 1109131264
2.0986288 -2.5345099 -1.683472 1093664768
12.159 -25.756836 0.19488774 1096810496
2.1042376 -2.5500374 -1.6155696 1084227584
2.1449409 -2.6468081 -1.5614567 1065353216
3.4984686 -5.7881885 -1.9077512 0
7.1433172 -14.24411 1.094488 1099956224
7.1479034 -14.280728 1.6304733 1111490560
7.141665 -14.28575 2.1685896 1097859072
7.1291604 -14.276176 2.71135 1095761920
2.0262468 -2.3958409 -1.7139381 1108869120
2.0498254 -2.4536681 -1.6618768 1094713344
11.957571 -25.769373 0.19132887 1096810496
2.0900931 -2.5518289 -1.6148064 1084227584
2.1162341 -2.6161215 -1.5551993 1065353216
7.0281701 -14.235287 1.0860406 1098907648
7.0304403 -14.260374 1.6178797 1113587712
7.0273237 -14.279347 2.1568921 1099956224
2.2195127 -2.8731532 -1.2738502 1065353216
7.0180788 -14.277204 2.6999619 1095761920
2.0132258 -2.3971407 -1.7129029 1108869120
2.0288863 -2.4371142 -1.6564779 1093664768
6.9438114 -14.232208 -0.46789488 1086324736
2.0782256 -2.558948 -1.615188 1084227584
2.0804133 -2.5668883 -1.5458132 1084227584
6.9297419 -14.244868 0.56107819 1065353216
6.9172139 -14.234639 1.0791575 1098907648
6.9156775 -14.25091 1.607576 1113063424
6.9141002 -14.273811 2.1456447 1097859072
2.1901386 -2.8442395 -1.2731869 1077936128
6.9102139 -14.284483 2.6906445 1094713344
2.000221 -2.3983395 -1.7118676 1108869120
2.0229681 -2.4564264 -1.6600772 1098907648
2.0425544 -2.5078242 -1.6033578 1084227584
2.0684321 -2.573957 -1.5461261 1084227584
6.8218951 -14.250584 0.55669081 1065353216
2.0688887 -2.5778203 -1.4763337 1077936128
6.7991071 -14.214802 1.0691456 1099956224
2.0999172 -2.6569309 -1.4139824 1073741824
6.8035417 -14.245963 1.5984174 1110179840
6.7962737 -14.24834 2.1298981 1091567616
6.7945571 -14.271219 2.675633 1088421888
1.9814752 -2.3850949 -1.7066913 1109131264
2.0262406 -2.4992521 -1.6695251 1084227584
6.8553939 -14.553142 -0.45407817 1092616192
2.0020969 -2.4415927 -1.5884748 1086324736
6.8566999 -14.584378 0.070279934 1065353216
2.0471787 -2.5569723 -1.5423716 1084227584
6.8387828 -14.560548 0.59276414 1065353216
2.0568209 -2.5848224 -1.4765775 1077936128
6.6860933 -14.198547 1.0600723 1099956224
2.0777154 -2.6400914 -1.4118906 1082130432
6.6968265 -14.252879 1.5919298 1113063424
6.6874924 -14.249995 2.1208999 1099956224
6.6824284 -14.257863 2.661139 1092616192
1.9674764 -2.3823442 -1.7046207 1109393408
1.9736665 -2.4006124 -1.6438807 1091567616
6.8070412 -14.714127 -0.44716981 1098907648
1.9751941 -2.4079056 -1.5804608 1084227584
6.7769227 -14.658819 0.07376609 1065353216
2.0366824 -2.5674977 -1.5433103 1084227584
6.7667966 -14.66157 0.60105133 1065353216
2.0428455 -2.5860727 -1.4760901 1077936128
6.5755219 -14.193336 1.0528766 1097859072
6.5855098 -14.239756 1.5816261 1113849856
6.582726 -14.253505 2.1128018 1099956224
6.8386335 -14.925393 -1.4991258 1088421888
6.5690804 -14.246327 2.6471627 1095761920
1.9574304 -2.3904042 -1.7056559 1108869120
6.7861533 -14.922124 -0.96839809 1073741824
1.9509015 -2.3760116 -1.6366823 1102577664
6.7792549 -14.926348 -0.43733069 1098907648
1.965279 -2.4159675 -1.581224 1082130432
6.7510781 -14.882551 0.09119723 1077936128
2.0186093 -2.557555 -1.5408074 1084227584
6.835382 -15.124619 0.65711117 1065353216
2.032115 -2.5966105 -1.4768212 1077936128
6.4725723 -14.199254 1.0478705 1097859072
6.4715676 -14.224808 1.5709409 1113587712
6.472331 -14.248013 2.1024542 1096810496
6.6512413 -14.731831 -1.4947976 1065353216
6.4660711 -14.252832 2.6388807 1096810496
1.9475915 -2.3982947 -1.7066913 1103101952
1.9404831 -2.382067 -1.6371322 1110179840
6.7632194 -15.184632 -0.42497942 1088421888
1.94531 -2.3983569 -1.5766445 1082130432
6.7487278 -15.169053 0.11455498 1065353216
2.0066438 -2.5642118 -1.5411202 1084227584
6.8143954 -15.374613 0.68489742 1065353216
2.0139275 -2.5865214 -1.4748713 1077936128
6.3674388 -14.205277 1.0428647 1098907648
6.3659453 -14.222761 1.5633084 1115422720
6.3588629 -14.232512 2.0898569 1099431936
6.5615168 -14.78276 -1.4950769 1077936128
6.3588333 -14.25401 2.6290455 1097859072
1.9320245 -2.3917389 -1.7035854 1104674816
1.9196006 -2.3607397 -1.6308335 1093664768
6.4936652 -14.765029 -0.45051935 1086324736
1.9269761 -2.3842347 -1.5728284 1084227584
6.7277651 -15.423458 0.13477515 1065353216
1.9918914 -2.563374 -1.5401815 1084227584
6.7860765 -15.613826 0.71122122 1065353216
1.9928535 -2.5689344 -1.4719465 1077936128
6.2522683 -14.182672 1.0331658 1098907648
2.0742385 -2.7949805 -1.4244411 1088421888
6.2582388 -14.220764 1.5556761 1113587712
6.2532196 -14.236217 2.0822084 1099431936
6.2452097 -14.236203 2.6140342 1097859072
1.9165797 -2.385047 -1.7004796 1104150528
6.3969898 -14.781413 -0.97307539 1073741824
1.9189112 -2.3941858 -1.638032 1099431936
6.3807569 -14.75945 -0.45282212 1098907648
1.9161937 -2.3902538 -1.57321 1088421888
6.7008095 -15.670765 0.15429805 1065353216
1.9798601 -2.5698538 -1.5404944 1084227584
6.7681127 -15.890707 0.74241972 1065353216
1.9814569 -2.5772984 -1.4724339 1077936128
6.1423306 -14.172129 1.0256568 1098907648
2.0279863 -2.7100241 -1.4160742 1065353216
6.1514683 -14.21977 1.5484253 1114898432
6.1442184 -14.221752 2.0705111 1099431936
6.1320801 -14.217469 2.5990224 1097859072
1.9038367 -2.385504 -1.6994443 1102577664
1.9138874 -2.4166751 -1.642531 1099431936
6.4515529 -15.264357 -0.42665413 1099431936
1.9056447 -2.3961005 -1.5735916 1086324736
6.6733103 -15.925918 0.17451809 1088421888
1.9634962 -2.5630991 -1.5386173 1084227584
1.9712923 -2.5893373 -1.4734089 1077936128
6.0397048 -14.172934 1.0203382 1093664768
1.9707257 -2.5908117 -1.4045696 1084227584
6.0397577 -14.203121 1.5381216 1116209152
6.0365119 -14.216452 2.0610631 1099431936
1.9761145 -2.6134686 -1.2680908 1077936128
6.0262623 -14.209764 2.5876346 1096810496
1.8920349 -2.3875902 -1.6989267 1101529088
1.9005947 -2.4151287 -1.6411813 1111490560
6.6265326 -16.100243 -0.38227329 1088421888
1.8960351 -2.4056911 -1.5747365 1090519040
6.662735 -16.231329 0.19944476 1088421888
1.9488688 -2.561919 -1.5376786 1084227584
1.9622819 -2.6050782 -1.4748713 1077936128
5.9304576 -14.160692 1.0128292 1097859072
1.9565414 -2.5915151 -1.4042209 1084227584
5.9316983 -14.194858 1.5297259 1115947008
5.9310069 -14.215836 2.0529647 1099431936
1.9617717 -2.6141937 -1.2680211 1082130432
5.9234166 -14.216671 2.5803876 1097859072
1.8839921 -2.402595 -1.7020324 1102053376
1.8767906 -2.3841357 -1.6326332 1098907648
6.6557217 -16.55035 -0.35945472 1082130432
1.8844378 -2.4096467 -1.5747365 1086324736
6.6414609 -16.535372 0.22402261 1090519040
1.9327126 -2.5569851 -1.5361143 1084227584
1.9442353 -2.5944371 -1.4729214 1077936128
5.8236713 -14.161477 1.0075103 1098907648
1.9461787 -2.6034448 -1.4049182 1084227584
5.826479 -14.193192 1.5228571 1115947008
5.8226519 -14.205164 2.0426171 1099431936
1.9468174 -2.6129129 -1.2679163 1082130432
5.8152962 -14.214423 2.5705523 1098907648
1.8681722 -2.3936272 -1.6984091 1102577664
1.8989346 -2.4897389 -1.6573777 1111490560
6.6378012 -16.867924 -0.3439633 1090519040
1.8676106 -2.398699 -1.5716835 1090519040
6.6095719 -16.810575 0.24598597 1073741824
1.9206752 -2.5630698 -1.5364271 1084227584
6.7133956 -17.164688 0.88817561 1065353216
1.9214181 -2.5685458 -1.4690216 1077936128
5.71699 -14.153145 1.0009402 1099431936
1.9276187 -2.5907049 -1.4033494 1084227584
5.7227273 -14.194444 1.5167509 1115422720
5.7122507 -14.186227 2.0304697 1100480512
1.9288118 -2.6020091 -1.2676371 1082130432
5.7056055 -14.197694 2.5570939 1099431936
1.8542856 -2.3900352 -1.6963384 1103101952
1.8849571 -2.4881485 -1.656028 1114374144
5.6296349 -14.114849 -0.49751702 1097859072
1.8593582 -2.4117081 -1.5735916 1090519040
6.600915 -17.16955 0.27561876 1073741824
1.9095044 -2.5708532 -1.5370529 1084227584
1.9111059 -2.5802364 -1.4699966 1077936128
5.6141887 -14.146995 0.99499571 1100480512
1.9086604 -2.5758994 -1.4016063 1084227584
5.6179838 -14.191163 1.5098819 1114112000
5.6064787 -14.179405 2.0214715 1100480512
1.9170568 -2.6099994 -1.2677069 1082130432
5.6057434 -14.201437 2.5498469 1095761920
1.8419241 -2.389924 -1.6953032 1105723392
3.9328475 -9.0299578 -1.0819784 1065353216
1.8707486 -2.4844937 -1.6542284 1114112000
1.8494847 -2.4210267 -1.5747365 1088421888
6.5868492 -17.516851 0.30420586 1073741824
1.8908453 -2.5560493 -1.5339242 1084227584
1.8986106 -2.584193 -1.4699966 1077936128
5.5081592 -14.137027 0.98842537 1099431936
1.8946874 -2.5761354 -1.4012576 1084227584
5.5111704 -14.171353 1.4999598 1115422720
5.5079637 -14.194092 2.0178723 1100480512
1.9013898 -2.6044483 -1.2675323 1082130432
1.8281657 -2.386117 -1.6932327 1108082688
1.8545967 -2.4752309 -1.6510792 1114374144
3.8628187 -9.0239153 -0.77981722 1086324736
1.8515842 -2.4697082 -1.5838953 1091567616
6.5629735 -17.858002 0.33209571 1073741824
1.8758879 -2.5524089 -1.5326728 1084227584
6.4941897 -17.675566 0.93984807 1065353216
1.8822901 -2.5767705 -1.4685341 1077936128
5.407661 -14.143239 0.984671 1099431936
1.8801595 -2.5743594 -1.4007347 1086324736
5.4059167 -14.162696 1.4923273 1115947008
5.4043589 -14.191276 2.0102241 1100480512
1.8895658 -2.6122637 -1.2676022 1084227584
5.7384081 -15.319316 2.8464537 1065353216
1.8161515 -2.387749 -1.692715 1109917696
1.8977281 -2.6620178 -1.1986651 1084227584
1.8397195 -2.4695616 -1.6488296 1114112000
1.8423513 -2.4827576 -1.5858034 1093664768
6.5425653 -18.226345 0.36242589 1073741824
1.8643959 -2.5600066 -1.5332985 1086324736
6.4823956 -18.068924 0.98567092 1065353216
1.865535 -2.5673075 -1.466828 1077936128
5.3050308 -14.141129 0.97966516 1099431936
1.8677047 -2.5781052 -1.4007347 1086324736
5.302104 -14.15699 1.4854585 1115815936
5.3000245 -14.175763 1.9998764 1100480512
1.8719901 -2.6008282 -1.2673229 1090519040
5.6234312 -15.305316 2.8340302 1065353216
1.8046815 -2.3911474 -1.692715 1109655552
1.8852375 -2.6678007 -1.1986303 1093664768
1.8315004 -2.4862173 -1.651979 1109131264
6.5362964 -18.614119 -0.25813237 1100480512
1.8228326 -2.4598598 -1.5804608 1084227584
6.5150394 -18.587572 0.39205882 1073741824
1.8542457 -2.5712328 -1.53455 1086324736
1.8522574 -2.5691397 -1.4665842 1084227584
5.203866 -14.133767 0.97403347 1099431936
1.8560126 -2.5856864 -1.4010834 1093664768
5.2018423 -14.161806 1.4808789 1115815936
5.1921287 -14.154514 1.9881791 1100480512
5.5220957 -15.326821 2.8319597 0
1.7902975 -2.3832366 -1.6896092 1109917696
1.8696202 -2.6639817 -1.1987699 1107558400
1.8255137 -2.5102515 -1.6569278 1090519040
1.811395 -2.4651916 -1.5808424 1090519040
6.4902453 -18.963686 0.42308637 1073741824
1.8371873 -2.5596876 -1.532047 1084227584
1.839299 -2.5707858 -1.4663404 1082130432
5.0968952 -14.113003 0.96621168 1100480512
1.8382944 -2.5720994 -1.3995146 1084227584
5.1040497 -14.165216 1.4762994 1115422720
5.0926309 -14.160559 1.9832302 1100480512
1.8566424 -2.6447921 -1.2679862 1107296256
6.27144 -18.391468 3.6767449 1065353216
1.7762761 -2.3771474 -1.687021 1110704128
1.8173504 -2.5287364 -1.6605271 1084227584
6.4663138 -19.335793 -0.22275318 1084227584
1.8030441 -2.4818015 -1.5835137 1090519040
6.4488368 -19.310436 0.45132479 1073741824
1.8245164 -2.5632288 -1.532047 1084227584
1.8297102 -2.585825 -1.4678029 1082130432
4.99616 -14.112352 0.96183145 1100480512
1.8281729 -2.5852549 -1.4003861 1082130432
4.9998941 -14.153415 1.4686671 1116340224
4.9896393 -14.152708 1.9751319 1099956224
1.8428497 -2.646538 -1.2679513 1088421888
4.9956665 -14.202433 2.503777 1086324736
1.7663922 -2.3858628 -1.688574 1110441984
1.8028675 -2.5246134 -1.6587275 1084227584
4.9328122 -14.156239 -0.50578606 1097859072
1.8000903 -2.5192337 -1.5903828 1095761920
4.9082227 -14.092716 -0.024545571 1065353216
1.8056805 -2.543786 -1.5282925 1086324736
4.9222741 -14.182467 0.47430715 1065353216
1.8199366 -2.6008189 -1.4692653 1092616192
4.8986802 -14.122398 0.95932853 1100480512
1.8307375 -2.6464827 -1.4056154 1073741824
4.8940654 -14.133226 1.4595083 1116209152
4.8909492 -14.159142 1.9706327 1099956224
1.8336816 -2.6655774 -1.2682304 1077936128
5.6291327 -16.9688 3.26367 1073741824
1.7539552 -2.3851769 -1.6875386 1110441984
1.8283294 -2.6711268 -1.1988397 1092616192
1.7874786 -2.5166051 -1.656028 1084227584
4.8330407 -14.157923 -0.50704217 1086324736
1.7881992 -2.5244162 -1.5907644 1090519040
4.8008671 -14.063437 -0.029426238 1100480512
1.7961119 -2.5585763 -1.5301697 1084227584
4.8173819 -14.164999 0.46894476 1065353216
1.8024806 -2.5869484 -1.4670717 1077936128
4.793788 -14.103058 0.95213258 1099431936
1.8304695 -2.7001188 -1.4101475 1065353216
4.7946091 -14.135021 1.454929 1116340224
4.7884464 -14.14976 1.9625348 1099956224
1.8307745 -2.7097504 -1.2689635 1065353216
5.5032291 -16.949827 3.2502112 1073741824
1.7418355 -2.3843246 -1.6865034 1110441984
1.8206518 -2.6958323 -1.1984558 1086324736
1.774457 -2.5159445 -1.6551282 1084227584
4.7298532 -14.135044 -0.50955427 1086324736
1.7765701 -2.5294399 -1.5911461 1090519040
1.7837666 -2.5617504 -1.5301697 1086324736
4.7269392 -14.19232 0.46943232 1065353216
1.8006507 -2.6325037 -1.4724339 1077936128
4.6931186 -14.088063 0.94587529 1099431936
1.8308016 -2.7576168 -1.4150282 1065353216
4.6966805 -14.131683 1.4495863 1116209152
4.6881113 -14.137123 1.9539865 1099956224
1.8251908 -2.744189 -1.269522 1065353216
4.9672227 -15.280181 2.7812314 1073741824
1.7266723 -2.3722034 -1.6823622 1110441984
1.7433753 -2.4433799 -1.6371322 1082130432
4.6295953 -14.131351 -0.51101971 1086324736
1.7636418 -2.5306528 -1.5907644 1088421888
4.6140671 -14.098508 -0.03047218 1117257728
1.7701387 -2.5610821 -1.529544 1086324736
4.6159363 -14.146352 0.46065769 1065353216
1.7959919 -2.6704893 -1.4768212 1088421888
4.5919003 -14.078647 0.94055641 1100480512
1.8224335 -2.7843316 -1.41712 1065353216
4.5966229 -14.128207 1.4442436 1115947008
4.5871587 -14.129992 1.946788 1099956224
1.821647 -2.7903843 -1.2702899 0
4.8528833 -15.252705 2.766737 1073741824
1.7148613 -2.3730993 -1.6818446 1110704128
1.7201506 -2.3988953 -1.6258847 1082130432
4.5295572 -14.126914 -0.51248509 1084227584
1.7493484 -2.5260434 -1.5892379 1090519040
1.7547083 -2.5526266 -1.5276668 1086324736
4.5186272 -14.153563 0.45870778 1065353216
1.7922051 -2.714293 -1.4819398 1092616192
4.4937191 -14.079998 0.93711483 1099431936
4.496779 -14.123988 1.4389008 1115815936
4.4896102 -14.135383 1.9427389 1099956224
4.4893775 -14.165769 2.4608133 1090519040
1.7043732 -2.3795536 -1.6828799 1111228416
4.4459829 -14.159789 -0.99318057 1073741824
1.7059562 -2.3902347 -1.6231853 1084227584
4.4315491 -14.129514 -0.51353186 1084227584
1.7395751 -2.5404472 -1.5915277 1088421888
1.740308 -2.547894 -1.5264153 1086324736
4.4169106 -14.140724 0.45432052 1065353216
1.7909538 -2.7716758 -1.4887644 1093664768
4.3952355 -14.078705 0.93336046 1099431936
4.3953938 -14.111374 1.4320318 1115422720
4.3899684 -14.130565 1.9364403 1098907648
4.3793969 -14.095122 -1.4725982 1065353216
4.3801212 -14.119744 2.442178 1099431936
1.6929632 -2.3821719 -1.6828799 1110966272
1.6884766 -2.3662484 -1.6168866 1082130432
4.3275261 -14.104119 -0.5160439 1090519040
1.7248907 -2.5337293 -1.5896196 1086324736
4.33285 -14.160602 -0.030820867 1065353216
1.7277218 -2.5507591 -1.5264153 1086324736
4.3189955 -14.142622 0.45188317 1065353216
1.7876251 -2.8233223 -1.4948579 1101529088
4.2952046 -14.068975 0.92835462 1099431936
4.2977509 -14.11333 1.4282156 1115684864
4.2920403 -14.120687 1.9292418 1098907648
3.0220504 -8.4113913 -1.3706063 1082130432
4.2845984 -14.131326 2.43959 1099431936
1.6819476 -2.3865979 -1.6833975 1107296256
4.2411304 -14.111695 -0.99478614 1073741824
1.6779896 -2.3725641 -1.6177864 1082130432
4.2314353 -14.100838 -0.51730001 1093664768
1.7122992 -2.5345008 -1.5892379 1088421888
4.2323685 -14.150129 -0.033609767 1065353216
1.7145942 -2.5496066 -1.5257896 1086324736
4.2176623 -14.116136 0.44603345 1065353216
1.7739534 -2.8303912 -1.4953454 1108082688
4.1973662 -14.056068 0.92303574 1098907648
4.2010574 -14.118412 1.4251627 1115422720
4.1908293 -14.104882 1.9206935 1098907648
4.1851821 -14.101291 -1.4719698 1065353216
4.1885695 -14.128501 2.4333782 1096810496
1.6683787 -2.3776584 -1.6802917 1103101952
4.1510563 -14.14739 -0.99450696 1073741824
1.6665112 -2.3730316 -1.6173365 1084227584
4.1323771 -14.093451 -0.51876539 1093664768
1.6965783 -2.5218003 -1.586185 1088421888
4.1271515 -14.103321 -0.039536376 1065353216
1.7028069 -2.556159 -1.5264153 1086324736
4.1193786 -14.112697 0.44310853 1065353216
1.7626011 -2.8470104 -1.4970516 1109917696
4.0995369 -14.052602 0.91928136 1098907648
4.1011734 -14.095402 1.416767 1115947008
4.093544 -14.105493 1.9161948 1098907648
4.0860996 -14.081296 -1.4712718 1065353216
4.0868607 -14.108447 2.4225078 1098907648
1.6581417 -2.385704 -1.6818446 1101004800
4.0478525 -14.119775 -0.99534464 1073741824
1.6578681 -2.3887527 -1.6204858 1090519040
4.0351529 -14.093161 -0.51981217 1093664768
1.6861264 -2.5339808 -1.5880932 1088421888
4.0362091 -14.134284 -0.038490433 1065353216
1.6862481 -2.5394003 -1.5232867 1088421888
4.0252113 -14.127998 0.44262108 1065353216
1.7471412 -2.8461316 -1.496564 1109917696
4.0022874 -14.050356 0.91583979 1099431936
2.939893 -8.7883596 -1.9512104 1065353216
4.00173 -14.083671 1.4106613 1114112000
3.9971554 -14.109218 1.9125956 1098907648
3.9913712 -14.092412 -1.4711322 1065353216
3.986706 -14.093312 2.4131906 1099956224
1.6496742 -2.403163 -1.6859857 1093664768
3.9451725 -14.091375 -0.99618238 1073741824
1.6433928 -2.3757482 -1.6168866 1084227584
3.938839 -14.096085 -0.52064949 1093664768
1.6751457 -2.5441751 -1.5896196 1086324736
3.9380956 -14.129431 -0.040582199 1065353216
1.6722103 -2.5341327 -1.5220352 1086324736
3.9241414 -14.107561 0.43774626 1065353216
1.7313361 -2.8431914 -1.4958328 1109917696
3.9063332 -14.053218 0.91333687 1094713344
2.9010463 -8.8813257 -1.9585315 1077936128
3.903331 -14.075058 1.4053186 1114898432
3.9005971 -14.098404 1.905847 1099956224
2.9097157 -8.979846 -1.3799258 1088421888
3.8876271 -14.081224 2.4049082 1092616192
1.6409792 -2.4205832 -1.6901268 1095761920
1.6312867 -2.3741112 -1.6159868 1090519040
3.837534 -14.058625 -0.52358031 1093664768
1.6643559 -2.5542433 -1.5911461 1090519040
3.8350255 -14.096448 -0.045114297 1065353216
1.6600343 -2.536464 -1.5220352 1088421888
3.8250847 -14.082029 0.4323841 1065353216
1.7119399 -2.8206213 -1.4926642 1109917696
3.8098874 -14.039422 0.90833104 1095761920
3.8066216 -14.073442 1.4015023 1114112000
3.8016272 -14.085414 1.8986486 1098907648
3.7960234 -14.081172 -1.4702945 1077936128
3.7936361 -14.081273 2.4002495 1090519040
1.6302705 -2.4265058 -1.6911621 1093664768
1.6215966 -2.3838365 -1.6177864 1084227584
3.7409687 -14.0562 -0.52462703 1090519040
1.6499765 -2.5469191 -1.5892379 1090519040
3.7433879 -14.109312 -0.045462865 1065353216
1.6468273 -2.5348809 -1.5214094 1088421888
3.7340388 -14.110889 0.43384656 1065353216
1.6981648 -2.8251698 -1.492908 1109917696
3.7124801 -14.03118 0.90426362 1098907648
3.7137733 -14.078438 1.3992127 1114636288
3.7052891 -14.071278 1.89145 1098907648
3.6984506 -14.086779 2.3971436 1099431936
1.6208698 -2.4419253 -1.6947856 1090519040
1.6115007 -2.3935554 -1.619586 1084227584
3.6496296 -14.068411 -0.52483636 1073741824
1.635692 -2.5374939 -1.5869483 1088421888
3.6514051 -14.13373 -0.044765729 1065353216
1.6363372 -2.5467708 -1.5229738 1088421888
3.6457272 -14.142634 0.43579647 1065353216
1.6826288 -2.8218658 -1.4921768 1109917696
3.6179638 -14.023774 0.90050924 1100480512
3.6173115 -14.075453 1.3953966 1115422720
3.6072643 -14.058771 1.8847016 1098907648
3.6031621 -14.062746 -1.4693869 1065353216
3.6033573 -14.07788 2.3904145 1099431936
1.612529 -2.4629595 -1.6999619 1086324736
1.6018952 -2.405086 -1.6218355 1084227584
3.5526123 -14.060686 -0.52609247 1073741824
1.6231811 -2.539629 -1.5869483 1088421888
1.6211658 -2.5333216 -1.5204709 1090519040
3.5443392 -14.111521 0.42994663 1065353216
1.6684942 -2.8242614 -1.4921768 1109917696
3.5216658 -14.018032 0.89706767 1099431936
3.520776 -14.055889 1.3885273 1116078080
3.5126925 -14.064775 1.8824519 1098907648
3.5033979 -14.0227 -1.4684095 1065353216
3.5030487 -14.049623 2.3785086 1097859072
1.6097591 -2.5221522 -1.7154911 1084227584
1.5946357 -2.4339256 -1.6281341 1091567616
3.4583433 -14.068033 -0.52651119 1073741824
1.6125153 -2.5533082 -1.5892379 1088421888
3.4603198 -14.125203 -0.048251886 1065353216
1.6074407 -2.5275521 -1.5192194 1088421888
3.4428768 -14.075727 0.42360947 1065353216
1.6539805 -2.8266184 -1.4921768 1109655552
3.4264867 -14.017447 0.89456475 1099431936
3.4241319 -14.047632 1.383948 1115947008
3.4172406 -14.064332 1.8788527 1098907648
3.4112809 -14.041548 -1.4684794 1065353216
3.4089277 -14.05688 2.3764381 1097859072
1.5967677 -2.5202878 -1.7144558 1084227584
2.5263796 -8.575448 -1.095312 1082130432
1.5793018 -2.4126623 -1.6227354 1084227584
3.3634772 -14.070767 -0.52713913 1073741824
1.5998944 -2.5552812 -1.5892379 1088421888
3.3668678 -14.139794 -0.048251886 1065353216
1.5973778 -2.5451133 -1.5217223 1088421888
3.3438106 -14.050945 0.41873464 1065353216
1.6361761 -2.8072848 -1.4894956 1108869120
3.3334916 -14.029848 0.8942517 1099431936
3.3277094 -14.038676 1.3793684 1115422720
3.3204544 -14.05357 1.8730041 1098907648
3.3124855 -14.016245 -1.4677813 1065353216
3.3148103 -14.06347 2.3743675 1097859072
1.5846584 -2.5240629 -1.7149734 1086324736
2.4650278 -8.538147 -1.0961149 1086324736
1.5693564 -2.4259756 -1.6254348 1084227584
3.2646384 -14.045156 -0.52923262 1084227584
1.5861286 -2.5493946 -1.5877115 1088421888
1.583113 -2.5352509 -1.5198451 1088421888
3.2480376 -14.045078 0.41629741 1065353216
1.6217818 -2.8094165 -1.4894956 1107296256
3.2359164 -14.010319 0.88893306 1098907648
3.2331896 -14.040686 1.3770789 1114898432
3.2239215 -14.042107 1.8671552 1098907648
3.2186666 -14.021887 -1.4676417 1065353216
3.2223372 -14.080873 2.3754027 1093664768
1.5711732 -2.5181887 -1.7129029 1086324736
2.4064651 -8.5162172 -1.0966384 1090519040
1.5651479 -2.481694 -1.638032 1092616192
3.1711998 -14.054427 -0.52944195 1073741824
1.5713814 -2.5356257 -1.5846585 1090519040
3.1796694 -14.167016 -0.048251886 1065353216
1.5716988 -2.5448463 -1.5210966 1086324736
3.1524417 -14.038523 0.41385993 1065353216
1.6076429 -2.8134143 -1.4897394 1102053376
3.1403215 -14.001818 0.88549149 1099431936
3.1387401 -14.042021 1.3747891 1115422720
3.1289573 -14.039601 1.863556 1098907648
3.121105 -13.999125 -1.4670134 1065353216
3.1317914 -14.112947 2.3805792 1088421888
1.5570208 -2.5064681 -1.7092794 1088421888
1.5514972 -2.471746 -1.6353326 1088421888
3.0751193 -14.043239 -0.53069806 1073741824
1.5599079 -2.5450978 -1.586185 1088421888
1.5576004 -2.5347822 -1.5192194 1086324736
3.0575488 -14.035218 0.41191003 1065353216
1.592437 -2.8094413 -1.4890082 1093664768
3.0464654 -14.004382 0.88392723 1100480512
3.0428519 -14.031005 1.3702098 1114112000
3.035861 -14.049949 1.8631064 1099956224
3.0259917 -13.991518 -1.4666643 1065353216
1.5464126 -2.5214722 -1.7129029 1086324736
1.5394473 -2.4732947 -1.6353326 1084227584
2.9802718 -14.039288 -0.53153539 1073741824
1.5473456 -2.5467033 -1.586185 1088421888
1.5453528 -2.5383325 -1.5195322 1090519040
2.9627888 -14.031239 0.40996012 1073741824
1.5792422 -2.8211188 -1.4902269 1088421888
2.9516983 -13.998442 0.88111126 1099431936
2.946254 -14.011501 1.3641037 1113849856
2.9417355 -14.032279 1.8563577 1099956224
2.9320357 -13.991169 -1.4664549 1065353216
1.5321981 -2.5076368 -1.7087618 1086324736
1.5314939 -2.5095954 -1.6434308 1084227584
2.8846169 -14.006618 -0.53383815 1073741824
1.5346293 -2.5442848 -1.5854218 1088421888
1.5329219 -2.537838 -1.5192194 1088421888
2.8681917 -14.006598 0.40557286 1073741824
1.5617758 -2.7972186 -1.4870583 1077936128
2.8600941 -13.997443 0.87923419 1099431936
2.8531578 -14.018606 1.3633405 1113063424
2.8465014 -14.021955 1.8514088 1099956224
2.8386242 -13.994128 -1.4663153 1065353216
1.5189208 -2.4974959 -1.7056559 1086324736
1.5194881 -2.5109694 -1.6434308 1084227584
2.7915676 -14.013221 -0.53404754 1073741824
1.5212126 -2.5379083 -1.5838953 1088421888
1.520842 -2.5431826 -1.5198451 1090519040
2.7760141 -14.021002 0.40606031 1073741824
1.5469493 -2.7908988 -1.4860833 1065353216
2.7654095 -13.98821 0.87610543 1099431936
2.7623606 -14.024806 1.3625773 1113849856
2.752116 -14.016763 1.8478097 1098907648
2.7449977 -13.972322 -1.4657568 1065353216
1.4946483 -2.383533 -1.6745976 1084227584
1.5081725 -2.5219853 -1.6456803 1086324736
2.6968558 -14.00328 -0.53509426 1073741824
1.5091046 -2.5431497 -1.5846585 1088421888
1.5095053 -2.5563059 -1.5217223 1086324736
2.6808813 -14.007121 0.40313539 1077936128
1.5363034 -2.8279545 -1.4904705 0
2.6699293 -13.968473 0.8714124 1098907648
2.0853302 -8.2531376 -1.8936876 1088421888
2.6680429 -14.018901 1.3595246 1113849856
2.6580732 -14.012838 1.8446604 1098907648
2.6536627 -14.038884 2.3458974 1088421888
1.4852761 -2.4058373 -1.6802917 1086324736
1.4965247 -2.5309889 -1.6474799 1091567616
2.6031203 -14.000615 -0.53572226 1084227584
1.4958055 -2.5365839 -1.5831321 1088421888
1.4964899 -2.5536268 -1.5210966 1088421888
2.5863872 -13.996512 0.40069804 1077936128
1.5243989 -2.8570552 -1.4938829 0
2.5766587 -13.967717 0.86984813 1098907648
2.0342164 -8.2721567 -1.8949077 1077936128
2.5736945 -14.010372 1.3560897 1111490560
2.5646987 -14.01407 1.8428606 1098907648
2.0264955 -8.2746124 -1.3655452 1084227584
2.5638754 -14.080544 2.3546972 1086324736
1.4703841 -2.370369 -1.6704565 1086324736
1.4840626 -2.5321524 -1.6474799 1091567616
2.5109155 -14.013203 -0.53551292 1073741824
1.4829556 -2.5338311 -1.5823689 1090519040
1.4824746 -2.539048 -1.5185937 1086324736
2.492111 -13.985231 0.39826056 1077936128
1.5096598 -2.8584051 -1.4938829 0
2.4839814 -13.972207 0.86922228 1097859072
2.06179 -9.193924 -1.9754397 1065353216
2.4795303 -14.001174 1.3526553 1112539136
2.4713719 -14.014644 1.841061 1098907648
2.4652972 -13.971295 -1.4652681 1065353216
1.4577198 -2.3520789 -1.6652802 1084227584
1.4717432 -2.531261 -1.64703 1092616192
2.4189398 -14.001073 -0.53655964 1084227584
1.4720742 -2.5505276 -1.5854218 1090519040
1.4705914 -2.5440254 -1.5192194 1084227584
2.4010046 -13.981007 0.3967981 1077936128
1.8164014 -6.8128161 -1.9808729 0
2.3936133 -13.975863 0.86859667 1097859072
1.9748467 -8.8333359 -1.9433663 1077936128
2.3889678 -14.00482 1.3518919 1112801280
2.3790216 -13.996896 1.8352121 1098907648
1.9662005 -8.8317757 -1.3751439 1094713344
2.7792923 -19.143984 3.7114267 1096810496
1.4470969 -2.3606808 -1.6673508 1084227584
2.3339477 -14.016071 -1.0012785 1073741824
1.4595749 -2.5361378 -1.6479298 1092616192
2.3244228 -13.982507 -0.53792036 1093664768
1.4588866 -2.543689 -1.5838953 1090519040
2.3186486 -13.99844 -0.070912383 1065353216
1.4583335 -2.5489473 -1.5198451 1090519040
2.3079948 -13.980288 0.39582333 1073741824
1.7681626 -6.7369227 -1.9711233 0
2.2989016 -13.951489 0.86359084 1097859072
1.9540136 -9.3225193 -1.9858984 1077936128
2.2955203 -14.000187 1.3496023 1112801280
2.2852216 -13.986449 1.831163 1098907648
2.2814043 -13.965835 -1.4649191 1088421888
2.650542 -19.149845 3.7103915 1100480512
1.4354233 -2.3557217 -1.6657978 1090519040
2.2388029 -13.986892 -1.0019068 1082130432
1.4473457 -2.5409317 -1.6488296 1090519040
2.2318566 -13.987178 -0.53802502 1095761920
1.445936 -2.5387135 -1.5827504 1091567616
2.2239447 -13.973258 -0.073701404 1065353216
1.4452128 -2.5419602 -1.5185937 1084227584
2.2137146 -13.959108 0.39241096 1077936128
1.731654 -6.8191051 -1.9808729 0
2.2058997 -13.946151 0.86171353 1097859072
1.8935976 -9.3187599 -1.9852011 1077936128
2.2019308 -13.990976 1.3465494 1112801280
2.1922562 -13.985061 1.8293635 1098907648
2.1885717 -13.964218 -1.4647795 1088421888
2.1955478 -14.142596 2.3634973 1086324736
1.4250292 -2.3699596 -1.6694213 1093664768
2.1453547 -13.976993 -1.0021859 1082130432
1.4350563 -2.5456414 -1.6497295 1088421888
2.1384163 -13.977247 -0.53886247 1095761920
1.432701 -2.527766 -1.5804608 1093664768
2.1315844 -13.979221 -0.073701404 1065353216
1.4333936 -2.5545959 -1.5204709 1086324736
2.1212144 -13.961038 0.3919234 1073741824
2.1132553 -13.944099 0.86046207 1097859072
1.8349216 -9.3424187 -1.9869442 1088421888
2.1080511 -13.973269 1.3419701 1112801280
2.0998116 -13.990802 1.8293635 1098907648
2.0979061 -13.997882 -1.4652681 1065353216
2.1008849 -14.12907 2.3583207 1090519040
1.4149765 -2.3937747 -1.675633 1093664768
1.4217452 -2.5327549 -1.6465801 1086324736
2.0455945 -13.974637 -0.53928113 1098907648
1.4207944 -2.538286 -1.5823689 1091567616
2.0385375 -13.972602 -0.074747227 1065353216
1.4206623 -2.5533457 -1.5201579 1065353216
2.0283062 -13.95439 0.39046094 1077936128
1.6468277 -6.8242097 -1.9808729 0
2.0211008 -13.949291 0.86046207 1098907648
1.7776567 -9.3695755 -1.989036 1088421888
2.0144634 -13.954895 1.3373905 1113587712
2.0093417 -13.989941 1.8280138 1098907648
2.002809 -13.953038 -1.4643955 1088421888
1.999258 -13.974036 2.3153567 1094713344
1.4035677 -2.3963017 -1.6761506 1090519040
1.9624743 -13.979075 -1.0023257 1082130432
1.409086 -2.5295033 -1.6456803 1086324736
1.9547739 -13.963284 -0.54011846 1100480512
1.4089679 -2.5467501 -1.5838953 1090519040
1.9461843 -13.977271 -0.074747227 1073741824
1.4153914 -2.703928 -1.543936 1065353216
1.9382017 -13.954915 0.38997349 1073741824
1.60439 -6.8263183 -1.9808729 0
1.930945 -13.947813 0.85952342 1097859072
1.6256704 -7.3623152 -1.8129814 1102577664
1.9225899 -13.967241 1.3389169 1112014848
1.9162589 -13.980777 1.8248645 1098907648
1.6202633 -7.4228997 -1.3502219 1065353216
1.9093785 -13.982189 2.3163919 1097859072
1.3937023 -2.4296207 -1.6849505 1086324736
1.8689234 -13.955241 -1.0028143 1082130432
1.3969476 -2.5300438 -1.6456803 1086324736
1.862002 -13.955396 -0.54074651 1100480512
1.3959222 -2.535532 -1.5816057 1090519040
1.8556317 -13.969257 -0.075793169 1073741824
1.8456619 -13.95095 0.3889986 1073741824
1.8378441 -13.928044 0.85576904 1098907648
1.5807862 -7.3681998 -1.8133301 1109655552
1.8325851 -13.971011 1.3389169 1112801280
1.8254967 -13.966979 1.8208154 1098907648
1.5724069 -7.3608193 -1.3491049 1092616192
1.817106 -13.989816 2.3174272 1097859072
1.3836222 -2.4783361 -1.6978914 1091567616
1.3846275 -2.5344071 -1.6465801 1084227584
1.7716051 -13.944781 -0.54147923 1095761920
1.383743 -2.5359826 -1.5816057 1084227584
1.762778 -13.956719 -0.07718768 1073741824
1.7559007 -13.958164 0.38948604 1073741824
1.7476637 -13.917419 0.85357893 1097859072
1.5361371 -7.4196181 -1.8176877 1110179840
1.7397554 -13.958544 1.3358642 1111752704
1.7332511 -13.972108 1.8212653 1098907648
1.5267138 -7.3783851 -1.3493842 1101529088
1.7260703 -13.963903 2.3096628 1095761920
1.3821503 -2.8494766 -1.7972779 1102053376
1.5060431 -7.3849869 -1.1176511 1088421888
1.3725625 -2.538677 -1.6474799 1086324736
1.6793467 -13.943593 -0.54168856 1095761920
1.3714576 -2.5442092 -1.5831321 1082130432
1.6724279 -13.943469 -0.078582071 1065353216
1.6633502 -13.948954 0.38802359 1073741824
1.6556541 -13.918084 0.85326612 1097859072
1.6494265 -13.945371 1.3328112 1111752704
1.6406747 -13.964904 1.8190159 1098907648
1.4813776 -7.3716173 -1.3492446 1105723392
1.6334224 -13.95094 2.3055217 1091567616
1.4595708 -7.3801012 -1.1177559 1088421888
1.3598123 -2.5272851 -1.6447805 1084227584
1.3602155 -2.6112368 -1.5961071 1065353216
1.5806751 -13.965502 -0.076838993 1065353216
1.5708739 -13.935126 0.38607368 1073741824
1.4403328 -7.0302229 -2.0052466 0
1.5636201 -13.916129 0.85264027 1097859072
1.4413077 -7.3302999 -1.8096695 1077936128
1.5570654 -13.935546 1.3305215 1112801280
1.5483545 -13.964848 1.818566 1098907648
1.4351557 -7.3745561 -1.3492794 1109917696
1.5411676 -13.948918 2.3044865 1095761920
1.3533984 -2.8945169 -1.8091836 1077936128
1.4133105 -7.3848872 -1.117686 1088421888
1.3514326 -2.8314707 -1.7149652 1073741824
1.4202847 -8.189661 -0.84345776 1077936128
1.3490322 -2.7567163 -1.6243469 1065353216
1.4884837 -13.974943 -0.076141737 1065353216
1.4787012 -13.92859 0.38509879 1065353216
1.396001 -6.9911852 -2.0003719 0
1.4716294 -13.913534 0.85201466 1098907648
1.3968878 -7.3668084 -1.8128071 1084227584
1.4649844 -13.936853 1.3305215 1111752704
1.4582163 -13.950482 1.8149668 1097859072
1.3888415 -7.3711748 -1.3492097 1111228416
1.4490845 -13.959774 2.3070745 1096810496
1.3425199 -3.4935324 -1.9696513 1077936128
1.3681227 -7.385344 -1.117686 1088421888
1.3375449 -2.9368439 -1.73926 1084227584
1.4050584 -13.926166 -0.54283994 1103101952
1.3959535 -13.943894 -0.078930758 1073741824
1.3490551 -5.5387006 -1.9925901 1065353216
1.3888916 -13.91346 0.38314888 1065353216
1.3525863 -7.03124 -2.0052466 0
1.3819312 -13.898435 0.84951174 1097859072
1.3506757 -7.3691516 -1.8129814 1104150528
1.3728878 -13.935555 1.3301398 1111490560
1.3660072 -13.943305 1.8131672 1097859072
1.3425741 -7.365469 -1.3491049 1108606976
1.3591219 -13.952596 2.3050041 1096810496
1.3238204 -3.483938 -1.9670632 1077936128
1.3217752 -7.3834934 -1.117721 1088421888
1.3221824 -3.9346428 -1.9696099 1073741824
1.3130527 -13.916427 -0.54336333 1106247680
1.3192914 -4.5120234 -1.9655133 1065353216
1.3061252 -13.940096 -0.079279326 1082130432
1.3155992 -5.5387611 -1.9925901 1065353216
1.296937 -13.929476 0.38509879 1077936128
1.3094492 -7.194068 -2.0252333 0
1.2901422 -13.886669 0.84763443 1097859072
1.3045101 -7.3452706 -1.8108896 1093664768
1.2831119 -13.935585 1.3301398 1111490560
1.2738822 -13.94133 1.8127173 1098907648
1.2976067 -7.3434486 -1.348721 1110179840
1.2669929 -13.937066 2.300863 1096810496
1.3046429 -3.4935317 -1.9696513 1077936128
1.2757164 -7.3453255 -1.1183841 1073741824
1.2998961 -3.9384525 -1.9705096 1073741824
1.2722145 -7.3512397 -0.88741994 1101004800
1.2928437 -4.5315332 -1.9693295 1065353216
1.2138529 -13.959576 -0.077536248 1065353216
1.2821435 -5.5385885 -1.9925901 1065353216
1.2050819 -13.909119 0.38266143 1065353216
1.2656039 -7.066772 -2.009634 0
1.1983337 -13.894014 0.84888589 1095761920
1.2584622 -7.3429837 -1.8107153 1086324736
1.191175 -13.921238 1.3274685 1108606976
1.1818309 -13.934815 1.8113674 1098907648
1.1749278 -13.934417 2.3003452 1096810496
1.2855191 -3.4894686 -1.9686161 1077936128
1.2167484 -8.2506008 -1.1025722 1088421888
1.2780062 -3.9109292 -1.964211 1073741824
1.2259301 -7.3627019 -0.88679188 1077936128
1.2663016 -4.5390782 -1.970856 1065353216
1.2227428 -7.3445268 -0.65625036 1082130432
1.2494928 -5.4868288 -1.9844556 1065353216
1.2216103 -7.0582733 -2.0086591 0
1.2072299 -7.7956629 -0.11694064 1092616192
1.2119422 -7.3702574 -1.8131557 1084227584
1.0994025 -13.908216 1.3251787 1110441984
1.0898318 -13.929607 1.8104676 1097859072
1.2051083 -7.3644352 -1.3491049 1088421888
1.0829346 -13.929195 2.29931 1096810496
1.2660483 -3.5045872 -1.9727572 1077936128
1.0448593 -13.879545 -1.0042803 1082130432
1.2559159 -3.9105337 -1.964211 1073741824
1.0376354 -13.895347 -0.54430532 1100480512
1.1771029 -7.3767591 -2.5226758 1065353216
1.1741095 -7.4591913 -0.64614028 0
1.1736807 -7.2737513 -0.43191335 1101529088
1.1781914 -7.029623 -2.0052466 0
1.1662731 -7.3454146 -1.811064 1073741824
1.0073813 -13.912217 1.3263236 1109917696
0.99809289 -13.915965 1.8077682 1097859072
1.159158 -7.3534508 -1.3489304 1090519040
0.99086028 -13.929125 2.2998276 1095761920
1.2468488 -3.5021868 -1.9722396 1077936128
0.95363188 -13.861288 -1.0045595 1082130432
1.2330543 -3.9372554 -1.9705096 1073741824
0.94659334 -13.867075 -0.5456661 1108082688
1.1319609 -7.3363256 -2.5150433 1065353216
0.93937767 -13.878699 -0.084160112 1084227584
1.1216999 -7.3708162 -0.18389453 1065353216
1.1204532 -7.3361897 -1.8103667 1086324736
0.91529346 -13.915576 1.3274685 1107558400
0.90634531 -13.907529 1.8064185 1097859072
1.113292 -7.3441463 -1.3487908 1091567616
0.89889973 -13.924549 2.29931 1095761920
1.2274778 -3.505445 -1.9732748 1077936128
0.86166167 -13.870376 -1.0043501 1082130432
1.210781 -3.9365451 -1.9705096 1073741824
0.8545053 -13.878096 -0.54493338 1102053376
1.1858977 -4.5645137 -1.9761987 1065353216
0.84871745 -13.847822 -0.086600445 1084227584
1.0808777 -7.3793292 -2.2848098 1065353216
0.83731341 -13.90861 0.38363633 1073741824
1.0904799 -7.0269804 -2.0052466 0
1.0750149 -7.3810887 -0.18201746 1065353216
0.82358962 -13.906519 1.3263236 1107820544
0.8150785 -13.888716 1.8028194 1088421888
1.0672374 -7.3425174 -1.3487908 1092616192
0.80736434 -13.90968 2.2962041 1082130432
1.2087847 -3.4911954 -1.9696513 1077936128
1.1881832 -3.9434674 -1.9723092 1073741824
0.76284122 -13.8745 -0.54493338 1093664768
1.1590774 -4.5673819 -1.9769619 1065353216
0.75485653 -13.899922 -0.081719778 1065353216
1.03561 -7.3537903 -2.2810552 1065353216
0.74386954 -13.940592 0.38802359 1082130432
1.0466397 -7.0251999 -2.0052466 0
1.0298827 -7.3267913 -1.8098438 1110966272
0.73225766 -13.890939 1.3240339 1109655552
