# .PCD v0.7 - Point Cloud Data file format
VERSION 0.7
FIELDS x y z rgba
SIZE 4 4 4 4
TYPE F F F U
COUNT 1 1 1 1
WIDTH 1128
HEIGHT 1
VIEWPOINT 0 0 0 1 0 0 0
POINTS 1128
DATA ascii
4.7314439 -0.32904318 -1.0536389 1091567616
4.3695588 -0.37445369 -1.8300389 1086324736
4.7609296 -0.32725784 -0.93061662 1100480512
4.9709573 -0.30293286 -1.8155063 1065353216
4.7584848 -0.32998919 -0.80873346 1095761920
5.7044926 -0.21605293 -1.7754011 1077936128
4.8458304 -0.32126883 -0.67165732 1093664768
4.7239289 -0.33658969 -1.5332115 1065353216
5.0018158 -0.30439043 -0.51345682 0
5.0890136 -0.29590905 -0.35806051 1086324736
4.6217318 -0.35299695 -1.2915469 1124990976
14.372085 0.80573016 2.2874045 1101004800
3.6589515 -0.47489405 -1.8635355 1082130432
4.6944604 -0.35505521 -1.1743366 1082130432
3.9776254 -0.43923885 -1.8503858 1082130432
4.3798218 -0.39429629 -1.8315654 1086324736
4.763773 -0.35126647 -0.93061662 1094713344
4.966042 -0.32867026 -1.8142548 1065353216
4.7612405 -0.35338089 -0.80873346 1095761920
5.7021718 -0.24732284 -1.7746699 1065353216
4.8486438 -0.3452552 -0.67165732 1084227584
4.7108698 -0.36213383 -1.531817 1065353216
6.3664794 -0.17604463 -0.24708749 0
5.0940042 -0.32198951 -0.35761055 1084227584
4.6323476 -0.37513942 -1.2916865 1124597760
14.363149 0.7147246 2.282228 1099956224
3.6645873 -0.49037614 -1.8645709 1082130432
4.6891594 -0.37946481 -1.1744761 1082130432
3.9874046 -0.45646748 -1.8521855 1082130432
4.7329049 -0.37650001 -1.0538483 1111490560
4.3861098 -0.41521734 -1.8323287 1086324736
4.7406321 -0.3774716 -0.93288273 1095761920
4.925662 -0.35876217 -1.8073717 1065353216
4.7540321 -0.37844685 -0.80995214 1095761920
5.7173929 -0.27663645 -1.7761323 0
4.8710008 -0.36777556 -0.66852862 1073741824
4.725358 -0.38452572 -1.5328628 1065353216
6.3430071 -0.21416546 -0.25243011 0
5.0968761 -0.34832367 -0.35761055 1084227584
4.6467919 -0.39699093 -1.291896 1124794368
14.357662 0.62204242 2.2780869 1094713344
3.6644382 -0.50733048 -1.8640532 1082130432
4.7015867 -0.40195343 -1.1743016 1082130432
3.9816568 -0.47632459 -1.8503858 1082130432
4.7255297 -0.40191221 -1.0543717 1112014848
4.4020209 -0.43522444 -1.835 1086324736
4.7451677 -0.40173277 -0.93270838 1109917696
4.9597917 -0.38138631 -1.8123776 1065353216
4.7584934 -0.40220645 -0.80970836 1096810496
5.7442698 -0.30495226 -1.7790573 0
4.9601092 -0.38456106 -0.65476239 1065353216
4.7476282 -0.40631309 -1.534606 1065353216
6.3505087 -0.24883099 -0.25166681 0
5.0782309 -0.37677473 -0.36255953 1084227584
4.6531315 -0.41980892 -1.2919657 1124335616
14.355585 0.52760959 2.274981 1096810496
3.6660509 -0.52367836 -1.8640532 1082130432
4.6940117 -0.42707765 -1.1744761 1077936128
3.9815381 -0.49507132 -1.8499359 1082130432
4.7298403 -0.42548141 -1.054267 1111490560
4.3885322 -0.45872912 -1.8319471 1086324736
4.7514586 -0.42525458 -0.93235976 1107558400
4.9740534 -0.40568045 -1.8142548 1065353216
4.766799 -0.42624313 -0.80897719 1105199104
5.7156191 -0.33876312 -1.7751575 0
4.9625478 -0.40995741 -0.65476239 1065353216
4.7737274 -0.42802766 -1.5366976 1065353216
4.993176 -0.40906236 -0.51727295 0
5.0923643 -0.40193099 -0.35986009 1084227584
4.6513476 -0.44342399 -1.291896 1123942400
14.364163 0.43660477 2.274981 1099956224
3.6656251 -0.54020536 -1.8635355 1082130432
4.7020841 -0.4495028 -1.1743715 1077936128
3.9987593 -0.51227206 -1.8535351 1082130432
4.737916 -0.44815403 -1.0539529 1109655552
4.3865085 -0.47993836 -1.8311838 1086324736
4.747663 -0.44970918 -0.93288273 1104150528
4.9762888 -0.430536 -1.8142548 1065353216
4.7728543 -0.44934511 -0.80848968 1107558400
5.7500038 -0.36671975 -1.7790573 0
5.1093779 -0.42368227 -1.565982 1097859072
5.0110922 -0.43335992 -0.51422 0
5.1024451 -0.42759463 -0.35806051 1084227584
4.6394339 -0.46783561 -1.2916516 1112801280
14.348811 0.3458758 2.2687693 1099956224
3.666975 -0.5561527 -1.8635355 1082130432
4.7040749 -0.47309619 -1.1743715 1077936128
3.9866946 -0.53158516 -1.8503858 1082130432
4.7498698 -0.47119784 -1.0534296 1109131264
4.3902516 -0.50116974 -1.8315654 1086324736
4.7555623 -0.47254884 -0.93235976 1103101952
5.0020351 -0.4541643 -1.8180093 1065353216
4.7807813 -0.47296438 -0.80775845 1105723392
5.7762337 -0.39498097 -1.7819821 0
4.9267621 -0.46394309 -1.5497711 1086324736
5.0366259 -0.45663327 -0.50964063 0
5.1181288 -0.45226908 -0.35491118 1084227584
4.6572042 -0.48918083 -1.2919308 1108344832
14.33686 0.25343609 2.2635932 1099956224
3.6624672 -0.57294589 -1.8619827 1082130432
4.6958866 -0.49684915 -1.174546 1077936128
3.9842432 -0.5504685 -1.849486 1082130432
4.7636161 -0.49364576 -1.0528016 1108606976
4.3977251 -0.52162111 -1.8327103 1086324736
4.7633524 -0.49607939 -0.93183684 1099431936
4.9684772 -0.48178661 -1.8123776 1065353216
4.784543 -0.49635801 -0.80751473 1104674816
5.7627397 -0.4272162 -1.7800322 0
4.9687066 -0.48496541 -0.65476239 1065353216
5.0268087 -0.48339668 -0.51193035 0
5.1473055 -0.47684738 -0.34861252 1092616192
4.6668983 -0.51189828 -1.2920705 1106771968
6.422833 -0.38957658 0.13610052 1073741824
3.6732595 -0.58862948 -1.8645709 1082130432
4.7055678 -0.52045327 -1.1744063 1077936128
3.9797134 -0.56943554 -1.8481363 1082130432
4.7513866 -0.51919341 -1.0535343 1108344832
4.3992553 -0.54362452 -1.8327103 1086324736
4.7769456 -0.51931435 -0.93079096 1097859072
4.9860468 -0.50684351 -1.8148805 1065353216
4.780302 -0.52151704 -0.80824596 1104674816
5.7252417 -0.46078652 -1.7751575 0
4.9704847 -0.51105583 -0.65476239 1065353216
4.8846264 -0.51722479 -1.5457618 1073741824
5.032474 -0.50900364 -0.51116705 0
5.1490946 -0.50354642 -0.34861252 1094713344
4.662468 -0.53562438 -1.2919657 1104150528
3.6743042 -0.60503691 -1.8645709 1082130432
4.713016 -0.54311937 -1.1743016 1082130432
3.9886663 -0.58751839 -1.8499359 1082130432
4.7508612 -0.54264915 -1.0536389 1107558400
4.3927255 -0.56502646 -1.8311838 1086324736
4.7864032 -0.54296273 -0.93009371 1097859072
4.9836497 -0.53200763 -1.8142548 1065353216
4.78968 -0.54459089 -0.807271 1103101952
5.7509108 -0.49014333 -1.7780823 0
4.972003 -0.53588641 -0.65476239 1065353216
5.3873973 -0.5133273 -1.5896883 1065353216
5.0222812 -0.53557253 -0.51345682 0
5.1409693 -0.5308091 -0.35086206 1086324736
4.6718445 -0.5584904 -1.2921053 1101529088
3.65978 -0.6218642 -1.8604298 1082130432
4.7223411 -0.56636339 -1.174162 1084227584
3.9896867 -0.60566252 -1.8499359 1082130432
4.7701511 -0.5656389 -1.0526969 1105723392
4.393918 -0.58645713 -1.8311838 1086324736
4.7817392 -0.56684613 -0.93061662 1099431936
5.0126762 -0.55613959 -1.818635 1065353216
4.804883 -0.56808054 -0.80556482 1094713344
5.7684131 -0.51947474 -1.7800322 0
4.9339275 -0.5633617 -0.6610198 1065353216
4.8039055 -0.57117534 -1.5384408 1065353216
5.0432396 -0.55976892 -0.50964063 0
5.2085581 -0.55419016 -0.33556542 1073741824
4.6750441 -0.58118522 -1.2921402 1097859072
3.6702421 -0.63772935 -1.8630179 1082130432
4.7115307 -0.59064662 -1.1743715 1082130432
4.0081253 -0.62347561 -1.8539851 1082130432
4.7773156 -0.58943224 -1.0523829 1101529088
4.3988829 -0.60771883 -1.8319471 1084227584
4.7789283 -0.59117186 -0.93096524 1101004800
4.9862876 -0.58313084 -1.8142548 1065353216
4.8139763 -0.59203756 -0.80458987 1093664768
5.7698898 -0.55051076 -1.7800322 0
4.9745879 -0.5868448 -0.65476239 1065353216
4.7970829 -0.59582204 -1.5377436 1065353216
5.1072178 -0.58302951 -0.49742886 0
14.401509 -0.19060478 1.7884225 1091567616
4.6861062 -0.60416353 -1.2923148 1092616192
14.327061 -0.20058955 2.253758 1099956224
3.6786654 -0.6538105 -1.8650885 1082130432
4.7205286 -0.61398906 -1.1742318 1082130432
3.9933403 -0.64282495 -1.8503858 1082130432
4.798286 -0.61277759 -1.0513362 1100480512
4.4076242 -0.62889212 -1.8334736 1084227584
4.9636512 -0.60959589 -1.8105004 1065353216
4.8209205 -0.61618674 -0.80385864 1091567616
5.7592468 -0.58199769 -1.7785697 0
4.8000412 -0.62000227 -1.5379179 1077936128
5.100419 -0.60973209 -0.49895534 0
14.399228 -0.28212729 1.7870728 1091567616
4.6950116 -0.62735909 -1.2924544 1088421888
14.322832 -0.29165444 2.2516873 1099956224
3.6889093 -0.66994047 -1.8676767 1082130432
4.7273669 -0.63751674 -1.1741271 1084227584
3.9842606 -0.66177446 -1.8481363 1082130432
4.8031273 -0.63691419 -1.0511268 1099956224
4.414257 -0.65024209 -1.8346183 1084227584
4.8285551 -0.63795042 -0.92678177 1082130432
4.9842629 -0.63440686 -1.813629 1065353216
4.8455558 -0.63988298 -0.80093378 1082130432
5.7761612 -0.61249042 -1.7805197 0
4.8267298 -0.64351434 -1.5401839 1077936128
5.1366053 -0.63506836 -0.4920862 1073741824
14.388516 -0.37381193 1.7839235 1093664768
4.7077546 -0.65055871 -1.2926638 1082130432
14.312174 -0.3827953 2.2480638 1099956224
3.685524 -0.686553 -1.8666414 1082130432
4.7320428 -0.66118181 -1.1740572 1084227584
4.0023203 -0.67991537 -1.8521855 1082130432
4.8097973 -0.6610617 -1.0508128 1088421888
4.4050403 -0.67205662 -1.8327103 1084227584
4.8889818 -0.66098881 -0.92155242 1073741824
5.0047045 -0.6594969 -1.8167578 1065353216
5.4237356 -0.65174055 -1.7371341 1065353216
4.8114281 -0.66833025 -1.5387894 1065353216
14.38885 -0.46506727 1.7834736 1093664768
4.7043438 -0.67427224 -1.2925941 1082130432
14.316327 -0.47343481 2.2485814 1101004800
3.6820219 -0.70311582 -1.8656062 1082130432
4.7365546 -0.68490547 -1.1739875 1084227584
4.0105138 -0.69847965 -1.8539851 1082130432
4.7883425 -0.68578523 -1.0519642 1088421888
4.3956699 -0.69373935 -1.8308022 1084227584
4.8735552 -0.68615109 -0.92294693 1065353216
5.009172 -0.68513209 -1.8173835 1065353216
4.8963213 -0.68826038 -0.79484034 1118175232
5.1285572 -0.6851368 -1.7008171 1077936128
5.0763788 -0.68729049 -0.63911891 1065353216
4.8158731 -0.69261855 -1.5391381 1073741824
14.407199 -0.54691297 1.309914 1110704128
14.390497 -0.55629253 1.7834736 1093664768
4.7227607 -0.69761515 -1.2929082 1077936128
14.300531 -0.56439757 2.2439227 1099431936
3.6822672 -0.71958053 -1.8656062 1082130432
4.7448993 -0.70864499 -1.1738479 1084227584
4.012732 -0.71721625 -1.854435 1082130432
4.8166423 -0.70968008 -1.0504988 1086324736
4.4097056 -0.71504897 -1.8334736 1084227584
4.8938131 -0.71073592 -0.92120385 1065353216
4.9976592 -0.71098012 -1.8155063 1065353216
5.1269078 -0.7117216 -1.7005733 1073741824
5.2663293 -0.7118209 -0.60908353 1073741824
4.8400717 -0.71679813 -1.5412297 1073741824
14.40042 -0.63831824 1.3083876 1110441984
14.38761 -0.64754987 1.7825738 1095761920
4.7370167 -0.72124326 -1.2931526 1082130432
14.295691 -0.65503854 2.2423697 1099956224
3.6881933 -0.73602188 -1.8671591 1082130432
4.7450805 -0.73253083 -1.1738479 1084227584
3.9953325 -0.73605913 -1.8503858 1082130432
4.8347893 -0.73400271 -1.0495567 1086324736
4.4118133 -0.73658687 -1.8338552 1084227584
4.8740516 -0.73572195 -0.92294693 1065353216
5.0333743 -0.73653316 -1.8211379 1065353216
4.9424434 -0.73804045 -0.78923434 1091567616
5.1310282 -0.73826402 -1.7010609 1077936128
4.8760567 -0.74129748 -1.5443673 1084227584
14.389077 -0.72962832 1.3060979 1110441984
14.387982 -0.73875666 1.7825738 1095761920
4.7551074 -0.74506783 -1.2934667 1077936128
14.296014 -0.74560326 2.2423697 1095761920
3.6862769 -0.75252503 -1.8666414 1082130432
4.7670913 -0.75648117 -1.1734639 1084227584
3.9855967 -0.75468147 -1.8481363 1082130432
4.8387852 -0.75852925 -1.0493474 1082130432
4.4275131 -0.75820577 -1.8369081 1084227584
4.9238501 -0.76070529 -0.91858917 1086324736
5.041255 -0.76246601 -1.8223894 1065353216
4.9543247 -0.76336026 -0.78777188 1082130432
5.1290078 -0.76483512 -1.7008171 1084227584
14.499218 -0.81457257 0.85326612 1073741824
4.9278111 -0.76575327 -1.5488995 1084227584
14.388877 -0.82084358 1.3060979 1111752704
14.366297 -0.82754958 1.7776247 1097859072
4.7730303 -0.76914227 -1.2937808 1082130432
14.293773 -0.83614826 2.241852 1099431936
3.6861775 -0.76901799 -1.8666414 1082130432
4.7789412 -0.78003633 -1.1732545 1088421888
4.0010638 -0.77342069 -1.8517355 1082130432
4.8466105 -0.78253794 -1.0489287 1077936128
4.4077306 -0.77912533 -1.8330919 1084227584
4.9495625 -0.78612238 -0.91632313 1082130432
5.0331593 -0.78768307 -1.8211379 1065353216
4.9660354 -0.78820932 -0.78630948 1065353216
5.114892 -0.79123747 -1.6991109 1077936128
14.593261 -0.90538985 0.86828387 1065353216
5.0272012 -0.79214215 -1.557615 1077936128
14.386076 -0.91203505 1.3057162 1111490560
14.367361 -0.91862899 1.7780746 1095761920
4.7687893 -0.79316723 -1.2937109 1082130432
14.300589 -0.92454261 2.2439227 1099956224
3.687901 -0.78513163 -1.8671591 1082130432
4.7846212 -0.80425662 -1.1731498 1084227584
4.0144577 -0.79187602 -1.8548849 1082130432
4.8762279 -0.80764586 -1.0473586 1077936128
4.4152789 -0.80079347 -1.8346183 1084227584
5.0209312 -0.81336522 -1.8192607 1065353216
14.559962 -0.99048847 0.3919234 1065353216
5.136333 -0.81744903 -1.701792 1077936128
14.611577 -0.99840003 0.8714124 1065353216
5.0487046 -0.81842166 -1.5595325 1084227584
14.382685 -1.0009006 1.3053347 1112539136
14.367791 -1.0097197 1.7785245 1095761920
4.8403664 -0.81808335 -1.2949675 0
14.275852 -1.0146487 2.2377112 1099956224
3.6837111 -0.8015452 -1.8661238 1082130432
4.910079 -0.83140039 -1.1709508 1065353216
4.0062828 -0.81047344 -1.8530853 1082130432
5.0074949 -0.83563632 -1.0404503 1065353216
4.3991237 -0.82199061 -1.8315654 1084227584
5.5342555 -0.85058725 -0.86507553 0
5.0203743 -0.83917546 -1.8192607 1065353216
19.122175 -1.1988938 0.95252264 1065353216
5.1278067 -0.84386182 -1.7008171 1077936128
14.542356 -1.0894128 0.86077487 1065353216
5.0381532 -0.84416217 -1.5586609 1077936128
14.364889 -1.0916412 1.3022817 1112539136
14.363687 -1.1007262 1.7780746 1095761920
4.9017482 -0.8443253 -1.2960496 0
14.277526 -1.1051728 2.2387462 1099956224
3.6813383 -0.81796181 -1.8656062 1082130432
4.9733591 -0.85839713 -1.1698338 1065353216
3.9999273 -0.82902014 -1.8517355 1082130432
5.1325493 -0.86527389 -1.0338559 1077936128
4.4181442 -0.84407711 -1.8353816 1084227584
14.530521 -1.1652441 -0.077536248 1065353216
5.0038424 -0.86447352 -1.8167578 1065353216
14.523521 -1.1742457 0.38802359 1065353216
5.1825871 -0.87222564 -1.7076417 1077936128
5.073246 -0.87062883 -1.5617986 1077936128
14.37001 -1.1829482 1.3038081 1112539136
14.368764 -1.189743 1.7798744 1097859072
4.9809189 -0.87204725 -1.2974458 0
14.270845 -1.1954654 2.2377112 1099956224
3.6865737 -0.83463705 -1.8671591 1082130432
5.0364585 -0.88563204 -1.1687169 1073741824
4.0012336 -0.84777719 -1.8521855 1082130432
4.4174085 -0.86514014 -1.8353816 1084227584
13.121701 -1.2030387 -0.20060016 1086324736
5.002954 -0.88952303 -1.8167578 1065353216
13.098085 -1.2082992 0.21326302 1095761920
5.7687435 -0.92239565 -1.7797885 0
13.09351 -1.2142972 0.63206768 1092616192
7.0352068 -0.9755044 -1.7336696 1065353216
13.068033 -1.2214962 1.0511771 1099956224
14.355617 -1.2804066 1.7776247 1095761920
12.939947 -1.2264701 -1.4365066 1065353216
14.282931 -1.2842251 2.241852 1099956224
3.695569 -0.85114366 -1.8697473 1082130432
13.156135 -1.2726409 -1.0268288 1091567616
4.0004821 -0.8659994 -1.8521855 1082130432
13.131465 -1.277739 -0.61412156 1120796672
4.4165049 -0.88673425 -1.8353816 1084227584
13.116328 -1.2832501 -0.20077445 1099956224
5.0018659 -0.91520607 -1.8167578 1065353216
13.09061 -1.2903057 0.21277557 1102577664
5.7872729 -0.95357049 -1.7822258 0
13.086011 -1.296265 0.63144195 1094713344
13.06845 -1.3016065 1.0519403 1099431936
14.343785 -1.3709997 1.7758251 1095761920
12.940408 -1.3057206 -1.4365764 1065353216
14.278862 -1.3746845 2.241852 1099956224
3.6716282 -0.86651701 -1.8635355 1082130432
13.154171 -1.355338 -1.0267938 1103101952
4.0034747 -0.88488549 -1.8530853 1082130432
13.129463 -1.360269 -0.61401689 1122893824
4.407608 -0.90791279 -1.8338552 1084227584
13.106326 -1.3652527 -0.20129742 1102053376
5.0163794 -0.94171304 -1.8192607 1065353216
13.102385 -1.3732852 0.21472548 1102577664
5.7896829 -0.98493719 -1.7827133 0
13.075968 -1.3780502 0.6305033 1095761920
7.0274734 -1.0550163 -1.733321 1065353216
13.068209 -1.3838065 1.0527035 1099431936
14.350784 -1.4625179 1.7785245 1088421888
10.90761 -1.2749527 -1.4011132 1065353216
14.25873 -1.4642518 2.2377112 1099956224
3.6803765 -0.88346547 -1.8661238 1082130432
13.151628 -1.4380323 -1.026759 1093664768
4.0043888 -0.90370637 -1.8535351 1082130432
13.132867 -1.4431397 -0.61359817 1120272384
4.4103255 -0.92967165 -1.8346183 1084227584
13.111663 -1.4480824 -0.20042588 1099956224
4.9912643 -0.96607232 -1.8155063 1065353216
13.093759 -1.4552686 0.21423791 1099956224
5.8037615 -1.0170676 -1.7846632 0
13.094934 -1.4615246 0.63425779 1094713344
7.0172863 -1.0933467 -1.7326238 1065353216
13.067393 -1.4660236 1.0534669 1098907648
14.285312 -1.5474557 1.7645777 1101004800
9.8379068 -1.2756125 -1.3824739 1065353216
14.253404 -1.5545378 2.2377112 1100480512
3.6832182 -0.90016758 -1.8671591 1082130432
9.9758835 -1.3114775 -1.0822227 1092616192
3.999337 -0.92216104 -1.8526353 1082130432
10.26598 -1.3351223 -0.76390707 1124728832
4.4246793 -0.95171487 -1.8376713 1084227584
10.265634 -1.3413732 -0.44951698 1110704128
4.9896851 -0.99103183 -1.8155063 1065353216
10.23059 -1.343726 -0.13747706 1101004800
5.7819571 -1.0470053 -1.7822258 0
13.089793 -1.5416276 0.63425779 1094713344
13.046413 -1.5469174 1.0504137 1097859072
14.275516 -1.6376516 1.7636777 1101004800
9.8340063 -1.3350403 -1.3824739 1077936128
14.251458 -1.6427969 2.2387462 1099431936
3.6859715 -0.91650146 -1.8681943 1082130432
9.8321152 -1.3617761 -1.084666 1090519040
3.996136 -0.94022787 -1.8521855 1082130432
13.124131 -1.6060419 -0.6134935 1118044160
4.4192548 -0.97307265 -1.8369081 1084227584
13.10087 -1.6105464 -0.20042588 1098907648
4.9760685 -1.0157485 -1.813629 1065353216
13.076929 -1.6170394 0.21350668 1099431936
5.7798085 -1.077343 -1.7822258 0
13.087896 -1.624045 0.6348834 1094713344
13.056356 -1.6278702 1.0534669 1099431936
14.261207 -1.7274618 1.7618784 1101004800
9.9494381 -1.4020468 -1.3845682 1077936128
14.252591 -1.7336165 2.2408168 1099956224
3.6808755 -0.93268538 -1.8671591 1084227584
9.8714666 -1.4246405 -1.0838982 1097859072
4.0102592 -0.96011645 -1.8557847 1082130432
13.115851 -1.6882454 -0.61359817 1120403456
4.4019418 -0.99342293 -1.8338552 1084227584
13.116396 -1.6945021 -0.1985084 1095761920
4.9937892 -1.0428305 -1.8167578 1065353216
13.080458 -1.6998743 0.21472548 1099431936
5.7773905 -1.1084452 -1.7822258 0
13.073607 -1.7055113 0.63363206 1094713344
13.05383 -1.7100794 1.0542301 1098907648
14.248217 -1.8172771 1.7605284 1101004800
9.9127665 -1.4596037 -1.3840097 1099956224
14.249235 -1.8241739 2.241852 1099956224
3.671819 -0.94847637 -1.8650885 1082130432
9.8585558 -1.4836109 -1.0840378 1097859072
4.0048194 -0.97853261 -1.8548849 1082130432
13.114959 -1.7710652 -0.61328417 1120403456
4.4118786 -1.0159299 -1.8361449 1077936128
13.105521 -1.7764604 -0.19885708 1095761920
5.0073738 -1.0698258 -1.8192607 1065353216
13.081425 -1.782626 0.21570037 1099431936
5.8024387 -1.1419718 -1.7856382 0
13.066627 -1.7875185 0.63363206 1094713344
13.058551 -1.7929941 1.0565199 1098907648
14.236545 -1.9071321 1.7596287 1101004800
14.122108 -1.9036011 2.2097588 1086324736
3.678046 -0.96558094 -1.8671591 1082130432
9.8412561 -1.5420586 -1.0842472 1090519040
4.0031338 -0.99724525 -1.8548849 1082130432
13.125416 -1.8550353 -0.61234212 1120403456
4.4099221 -1.0374849 -1.8361449 1077936128
13.096061 -1.8584962 -0.19903137 1095761920
4.9774942 -1.0929267 -1.8148805 1065353216
13.073904 -1.8646855 0.21570037 1099431936
5.7877116 -1.1721017 -1.7841758 0
13.070871 -1.8706038 0.63550925 1094713344
7.0136132 -1.2929828 -1.7336696 1065353216
13.05096 -1.874894 1.0565199 1097859072
14.10205 -1.9850334 1.7303852 1091567616
3.6764596 -0.98201132 -1.8671591 1084227584
9.8454418 -1.6025022 -1.0840727 1099431936
3.9935627 -1.0151639 -1.8530853 1082130432
13.117389 -1.9373997 -0.61234212 1120403456
4.4117217 -1.0594201 -1.8369081 1084227584
13.093957 -1.9412599 -0.1985084 1093664768
4.9946394 -1.1204288 -1.8180093 1065353216
13.061863 -1.9462817 0.21521293 1099431936
5.8162279 -1.2064918 -1.7880756 0
13.070598 -1.9533883 0.63676071 1094713344
13.031078 -1.9555234 1.0542301 1098907648
14.103016 -2.0729847 1.7326347 1091567616
9.868103 -1.6364259 -1.3835211 1065353216
3.674758 -0.99843144 -1.8671591 1082130432
9.8453827 -1.6611289 -1.0839679 1097859072
3.9819341 -1.0327538 -1.8508357 1082130432
9.8245926 -1.6633996 -0.78546947 1125974016
4.4114723 -1.0806426 -1.8372897 1084227584
9.8210526 -1.6690234 -0.48577371 1086324736
4.980226 -1.144125 -1.8161321 1065353216
9.7894468 -1.6700771 -0.18793084 1103626240
5.7734413 -1.2335231 -1.7832007 0
9.7966204 -1.6753491 0.11645959 1084227584
9.7556868 -1.6768155 0.41540143 1101529088
9.7354765 -1.6790432 0.72035491 1088421888
14.016599 -2.1603839 2.1885357 1095761920
3.684505 -1.0157427 -1.8702649 1082130432
9.8427639 -1.7210544 -1.0838982 1092616192
3.9837964 -1.0512854 -1.8517355 1082130432
13.417319 -2.1363823 -0.59559458 1120403456
4.4012632 -1.1012924 -1.8357632 1084227584
13.43065 -2.1443372 -0.16730668 1092616192
4.9891348 -1.1710086 -1.8180093 1065353216
13.403078 -2.1496992 0.25957331 1104674816
5.789741 -1.2660971 -1.7856382 0
13.378543 -2.1532466 0.68869686 1097859072
13.372078 -2.1588869 1.1244477 1110441984
13.350006 -2.1626832 1.5621217 1099431936
13.340719 -2.1701014 2.0089152 1097859072
3.6748962 -1.0312889 -1.8681943 1082130432
9.857769 -1.7816683 -1.0835142 1101529088
3.9990139 -1.0719674 -1.8557847 1082130432
13.417493 -2.2198772 -0.59507126 1120403456
4.4104695 -1.1236614 -1.838053 1084227584
13.292053 -2.2130749 -0.1786368 1086324736
5.0175314 -1.1997967 -1.8230151 1065353216
13.395217 -2.2321315 0.25981709 1107558400
5.7663031 -1.2948298 -1.7832007 1065353216
13.384372 -2.2372081 0.6911999 1102053376
13.37751 -2.2449033 1.1275007 1111490560
13.339828 -2.246608 1.5621217 1099431936
10.034294 -1.8370372 -1.3868021 1077936128
13.340337 -2.2530618 2.0115035 1100480512
3.6652386 -1.0463043 -1.8661238 1082130432
9.8483515 -1.8409684 -1.0835491 1086324736
4.004468 -1.0911632 -1.8575842 1082130432
13.424739 -2.3065708 -0.5941292 1120403456
4.4077611 -1.1452026 -1.838053 1084227584
13.230419 -2.2878566 -0.18316902 1086324736
5.0025229 -1.2240484 -1.8211379 1065353216
13.404236 -2.3189335 0.26225445 1106771968
5.7741776 -1.3273735 -1.7846632 1065353216
13.387382 -2.3231628 0.69339001 1103626240
13.360917 -2.3282521 1.1263558 1112276992
13.350313 -2.3332644 1.5670706 1099431936
9.9095068 -1.8823452 -1.3847427 1097859072
13.325696 -2.3364108 2.010468 1100480512
3.67452 -1.0646071 -1.8692296 1082130432
9.8444653 -1.900992 -1.0834793 1097859072
4.0000019 -1.1100758 -1.8571343 1082130432
13.417223 -2.3936636 -0.59391987 1120403456
4.4010119 -1.1661919 -1.8372897 1084227584
13.22698 -2.3741002 -0.18247177 1086324736
4.9598699 -1.2449958 -1.8148805 1065353216
13.381165 -2.4016135 0.26079211 1107558400
5.7857461 -1.3605953 -1.7866131 0
13.393402 -2.4118791 0.69620574 1104150528
13.349582 -2.4122491 1.1263558 1112014848
13.348594 -2.4185297 1.5693203 1099431936
9.9370165 -1.9472274 -1.385371 1092616192
13.329317 -2.4243932 2.0146089 1100480512
3.6684167 -1.0804681 -1.8681943 1082130432
9.8458843 -1.9633495 -1.0833048 1097859072
3.9819655 -1.1265464 -1.8535351 1082130432
10.269816 -2.0286601 -0.75992954 1110441984
4.4095898 -1.1898777 -1.8395795 1084227584
13.250825 -2.4622679 -0.17933418 1084227584
4.9797635 -1.273751 -1.818635 1065353216
10.23733 -2.0351191 -0.12772752 1086324736
5.7813506 -1.3917297 -1.7866131 0
13.389302 -2.4972365 0.69745731 1102577664
13.349314 -2.4978635 1.1286453 1112014848
13.326986 -2.5010297 1.5670706 1099431936
9.8512602 -1.9960245 -1.3840097 1065353216
13.334513 -2.5107007 2.0192678 1099431936
3.675581 -1.0982584 -1.8707825 1082130432
13.201385 -2.5250371 -1.0239317 1119092736
3.9869564 -1.146253 -1.8553348 1082130432
10.235206 -2.0856631 -0.76129031 1120403456
4.4026179 -1.2102894 -1.8388162 1084227584
10.253915 -2.0948496 -0.44341609 1097859072
4.9799962 -1.2992177 -1.8192607 1065353216
13.388285 -2.5745564 0.2646918 1093664768
5.7296348 -1.415683 -1.7807634 1065353216
13.381012 -2.5799122 0.69808304 1095761920
13.358143 -2.585037 1.1328434 1100480512
13.318297 -2.585377 1.5679704 1093664768
9.7988472 -2.0488424 -1.3832419 1077936128
13.331774 -2.5938783 2.0218561 1084227584
3.675041 -1.1145571 -1.8713002 1082130432
3.9860988 -1.1646734 -1.8557847 1082130432
4.3915477 -1.2305481 -1.8372897 1084227584
4.9877548 -1.3265818 -1.8211379 1065353216
14.263365 -2.79966 0.37510547 1104674816
5.7485046 -1.4493934 -1.7836883 0
14.24188 -2.8031859 0.83824837 1099956224
14.213876 -2.8056469 1.3038081 1110966272
14.203734 -2.8132493 1.7780746 1098907648
12.33279 -2.5150132 -1.4281993 1095761920
14.176865 -2.8158414 2.2547932 1091567616
3.6571624 -1.1284676 -1.8671591 1082130432
3.9946525 -1.1851457 -1.858484 1082130432
12.809142 -2.6367993 -0.62354201 1099956224
4.3958421 -1.2532326 -1.8388162 1084227584
12.913823 -2.6602607 -0.20582952 1065353216
4.999207 -1.3547281 -1.8236408 1065353216
13.641626 -2.7892752 0.29954645 1091567616
5.7904882 -1.4880701 -1.789538 0
13.64263 -2.7960694 0.74438775 1088421888
13.622119 -2.7992744 1.190086 1093664768
13.618181 -2.8074343 1.6444539 1088421888
12.341869 -2.5954692 -1.4285831 1102053376
13.602005 -2.8113325 2.1026075 1084227584
3.6582472 -1.1454002 -1.8681943 1082130432
3.9800005 -1.2018068 -1.8557847 1082130432
4.38836 -1.2740024 -1.838053 1084227584
14.249076 -2.9735413 -0.086077593 1093664768
4.9520464 -1.3729796 -1.8167578 1065353216
14.231481 -2.9797897 0.37486181 1099956224
5.7656431 -1.515849 -1.7871007 0
14.233315 -2.9870691 0.84168994 1095761920
14.197407 -2.9877875 1.3064793 1115947008
14.204337 -2.9982584 1.7852732 1101004800
12.336572 -2.6737192 -1.4287229 1101004800
3.6611116 -1.1627049 -1.8697473 1082130432
12.958106 -2.8222744 -1.0272826 1091567616
3.9729207 -1.2196555 -1.8548849 1082130432
4.4039273 -1.2988505 -1.8418691 1084227584
14.227329 -3.0626686 -0.086600445 1082130432
4.9592495 -1.4003935 -1.818635 1073741824
14.237064 -3.0737214 0.37754282 1103626240
5.7757916 -1.5496627 -1.7890505 0
14.242627 -3.0817082 0.84575713 1102053376
14.202698 -3.0814552 1.3106774 1114898432
14.199806 -3.0902231 1.7879728 1098907648
12.259896 -2.7390866 -1.4276059 1088421888
14.201025 -3.0974102 2.2739458 1099956224
3.6657469 -1.1804212 -1.8718178 1082130432
3.9714689 -1.2384956 -1.8553348 1082130432
12.822015 -2.8871505 -0.62061119 1093664768
4.3806963 -1.3167416 -1.838053 1084227584
14.206931 -3.1519594 -0.086949013 1084227584
4.9778962 -1.430118 -1.8223894 1065353216
14.240013 -3.1674747 0.3799803 1105199104
5.7661738 -1.5799911 -1.788563 0
14.229894 -3.172574 0.84638298 1103626240
14.224669 -3.1785851 1.3183097 1115947008
14.195044 -3.17998 1.7906719 1099956224
11.613065 -2.695555 -1.4163665 1090519040
14.188096 -3.187969 2.274981 1099956224
3.6493816 -1.1942044 -1.8681943 1082130432
12.822348 -2.9620607 -1.0291674 1091567616
3.9737101 -1.2580758 -1.8566844 1082130432
12.740504 -2.9524918 -0.62417001 1103101952
4.3767443 -1.3375356 -1.838053 1084227584
14.213292 -3.2464006 -0.084857367 1065353216
4.9731588 -1.4549741 -1.8223894 1065353216
14.254413 -3.2614017 0.38387999 1093664768
5.7797322 -1.6147822 -1.7910005 0
14.240224 -3.2656617 0.85076296 1094713344
14.242056 -3.2753747 1.3251787 1104674816
14.198775 -3.2739155 1.7956208 1095761920
12.285949 -2.9023929 -1.4285831 1098907648
14.182551 -3.2777228 2.2780869 1099956224
3.6424913 -1.20927 -1.8671591 1082130432
13.222308 -3.1253889 -1.0217676 1073741824
3.9701662 -1.2761036 -1.8566844 1082130432
12.79924 -3.0470548 -0.62019253 1111752704
4.3802423 -1.3603839 -1.8395795 1084227584
14.195978 -3.334074 -0.084857367 1073741824
4.968123 -1.4804372 -1.8223894 1065353216
5.7853932 -1.6474512 -1.7924629 0
14.270719 -3.3726218 1.3343376 1108082688
14.261021 -3.3800592 1.8145167 1091567616
12.312167 -2.9853444 -1.4293162 1102053376
14.168352 -3.3682001 2.2791221 1099956224
3.6524467 -1.2281853 -1.8707825 1082130432
12.92736 -3.1507876 -1.0267241 1073741824
3.9778533 -1.2969402 -1.8593838 1082130432
12.749657 -3.1202078 -0.62197191 1105723392
4.3835707 -1.3833079 -1.8411059 1084227584
14.216611 -3.4320021 -0.081371091 1065353216
4.9474406 -1.5026349 -1.8198864 1065353216
16.104788 -3.8360686 0.62055039 1065353216
5.794539 -1.68183 -1.7944127 1065353216
14.501533 -3.5081568 0.89894497 1073741824
6.9763494 -1.9331875 -1.738899 1065353216
14.259756 -3.4645603 1.3358642 1108606976
14.265202 -3.4751396 1.8199157 1091567616
14.168638 -3.4618046 2.2842987 1100480512
3.6546946 -1.2456453 -1.8723354 1082130432
6.9840059 -1.9606063 -1.1325206 1065353216
3.9587033 -1.3121845 -1.8557847 1082130432
14.236325 -3.5232394 -0.54137456 1120403456
4.3828893 -1.4054804 -1.8418691 1084227584
14.201443 -3.5227933 -0.081022404 1073741824
4.9266267 -1.5245795 -1.8173835 1065353216
14.627697 -3.624402 0.43774626 1065353216
5.7684989 -1.7088197 -1.7919754 0
14.481933 -3.6000836 0.89894497 1073741824
6.9525642 -1.9682556 -1.7375045 1065353216
14.259651 -3.5589705 1.3396803 1108606976
14.234905 -3.5606709 1.817216 1091567616
14.160692 -3.5538893 2.2874045 1100480512
3.6586974 -1.2635776 -1.874406 1082130432
6.9756107 -1.9991046 -1.1325206 1077936128
3.9603972 -1.3318338 -1.8571343 1082130432
14.238574 -3.615828 -0.54022312 1118830592
4.3783331 -1.426289 -1.8418691 1084227584
14.189525 -3.6143634 -0.080325268 1065353216
4.9443836 -1.5542458 -1.8211379 1065353216
14.871274 -3.7737746 0.47089478 1073741824
5.7577977 -1.738958 -1.7914879 0
14.469913 -3.6913164 0.90019643 1073741824
14.262685 -3.6543841 1.3442596 1108869120
14.226349 -3.6533151 1.8199157 1091567616
14.160129 -3.6454599 2.2925806 1099956224
3.6325245 -1.274294 -1.8681943 1082130432
6.5632319 -1.9461486 -1.1397458 1077936128
3.9677491 -1.3523797 -1.8598337 1082130432
14.23964 -3.7108359 -0.5390718 1120403456
4.3735123 -1.4475996 -1.8418691 1084227584
14.235723 -3.7170539 -0.074398659 1065353216
4.9386559 -1.5795058 -1.8211379 1065353216
14.520989 -3.7923851 0.42945918 1065353216
5.7586765 -1.7709066 -1.7924629 1065353216
14.464432 -3.7865782 0.90269935 1073741824
6.6535177 -1.9815136 -1.7122293 1077936128
14.257893 -3.7459311 1.3473128 1106771968
14.224722 -3.7477379 1.8244146 1091567616
6.5237427 -1.9571846 -1.3267659 1073741824
14.148985 -3.7371986 2.2951689 1099956224
3.6325443 -1.2912875 -1.8692296 1082130432
6.437964 -1.9551026 -1.1418401 0
3.9748333 -1.3735155 -1.8625332 1082130432
14.230293 -3.8036904 -0.53844374 1120403456
4.3800049 -1.4715923 -1.8441588 1084227584
14.427905 -3.8577585 -0.055224437 1065353216
4.9327526 -1.6047213 -1.8211379 1065353216
14.468505 -3.8770862 0.42555937 1065353216
5.7707276 -1.8064445 -1.7949003 0
14.450573 -3.880079 0.90395081 1073741824
6.6428275 -2.0182321 -1.712055 1077936128
14.242367 -3.837528 1.3484575 1106771968
14.237566 -3.8459122 1.832513 1091567616
6.3829451 -1.9617004 -1.3243923 1090519040
14.140943 -3.8298202 2.2987924 1100480512
3.6324389 -1.308306 -1.8702649 1082130432
6.2351174 -1.9434335 -1.1453307 0
3.9684985 -1.3915461 -1.8620833 1082130432
14.220275 -3.8965704 -0.53781569 1120272384
4.3920317 -1.4971107 -1.8475934 1084227584
4.9113245 -1.6261336 -1.818635 1065353216
14.369216 -3.9498434 0.41580984 1065353216
5.7786407 -1.8412547 -1.7968502 0
14.451394 -3.9773109 0.90770519 1065353216
6.637918 -2.0553598 -1.7124037 1077936128
14.24525 -3.9337602 1.3534185 1107558400
14.227517 -3.936554 1.8352121 1091567616
14.141604 -3.9248059 2.3050041 1101004800
3.635956 -1.3262902 -1.8723354 1082130432
6.0445375 -1.9310869 -1.1486117 0
3.9601505 -1.4090465 -1.8611835 1082130432
14.192723 -3.9828212 -0.53812969 1106247680
4.3792362 -1.5160615 -1.846067 1084227584
14.190001 -3.991688 -0.072655581 1065353216
4.9052544 -1.6505339 -1.818635 1065353216
14.339413 -4.036623 0.41483495 1065353216
5.7497211 -1.8669711 -1.7941691 0
14.448247 -4.0714455 0.91083395 1065353216
6.651825 -2.0983081 -1.7144954 1077936128
14.239809 -4.0282373 1.3568529 1107558400
14.208712 -4.0275187 1.8361121 1091567616
6.0593309 -1.9541476 -1.3188773 1065353216
14.142136 -4.0177135 2.3112159 1100480512
3.6375675 -1.3434651 -1.8738884 1082130432
5.8657742 -1.9199978 -1.1516833 1065353216
3.9555795 -1.4269774 -1.8611835 1082130432
14.206554 -4.0820913 -0.53614098 1106247680
4.3661876 -1.5354037 -1.8445405 1084227584
4.9179745 -1.6804842 -1.8217636 1073741824
14.400654 -4.149405 0.42555937 1065353216
5.7535181 -1.9000744 -1.7956314 1065353216
6.9316745 -2.2100093 -1.7406421 1084227584
14.245666 -4.1235261 1.3625773 1108606976
14.203047 -4.1195927 1.8401612 1091567616
5.8459682 -1.9325802 -1.3151774 1065353216
14.141409 -4.1130133 2.3174272 1100480512
3.637078 -1.3605951 -1.8749236 1082130432
5.664413 -1.8995521 -1.1551738 1073741824
3.965831 -1.4493417 -1.8647827 1082130432
14.222149 -4.179986 -0.53404754 1108082688
4.3645415 -1.5571055 -1.8453037 1084227584
14.444331 -4.248939 -0.045462865 1065353216
4.9344354 -1.7110445 -1.8255181 1065353216
14.446224 -4.2568069 0.43433401 1065353216
5.7760363 -1.939191 -1.7995312 0
14.431685 -4.260272 0.91583979 1065353216
6.9059262 -2.244993 -1.7392476 1082130432
14.236943 -4.2177272 1.3656303 1107820544
14.20741 -4.2170224 1.8469096 1091567616
5.6831226 -1.9224598 -1.3123851 1065353216
14.144309 -4.2072315 2.3246744 1100480512
3.61607 -1.3717542 -1.8702649 1082130432
5.5096512 -1.8897853 -1.1578265 1073741824
3.9515867 -1.4647428 -1.8625332 1082130432
4.355022 -1.5772775 -1.8445405 1086324736
12.663989 -3.856535 -0.20478357 1065353216
4.9161844 -1.7330923 -1.8236408 1065353216
14.463507 -4.3599133 0.43969616 1065353216
5.7563314 -1.9663099 -1.7980689 0
14.437305 -4.3600945 0.92084563 1065353216
6.8953295 -2.2839255 -1.7392476 1077936128
14.220585 -4.307641 1.3671569 1108606976
14.203525 -4.3126097 1.8518587 1092616192
5.5285583 -1.9115262 -1.3097323 1065353216
14.116112 -4.2956195 2.3236389 1100480512
3.6265311 -1.3919127 -1.874406 1082130432
5.3667955 -1.8811597 -1.1602699 1065353216
3.9427562 -1.4820168 -1.8616333 1082130432
14.215255 -4.3716326 -0.53174472 1095761920
4.3642659 -1.6026787 -1.8475934 1086324736
4.8711858 -1.747421 -1.8173835 1065353216
16.902273 -5.1477675 0.75411928 1065353216
5.7362461 -1.993986 -1.7966064 0
5.1592803 -1.8337632 -1.5823673 0
14.212409 -4.4024081 1.3705913 1104674816
14.219551 -4.4141688 1.8617564 1092616192
5.3741493 -1.8992562 -1.3070796 1065353216
14.117032 -4.3922534 2.3308859 1100480512
3.6293952 -1.4101115 -1.8764765 1082130432
5.2127419 -1.8672743 -1.1629226 1073741824
3.9244506 -1.4965042 -1.858484 1082130432
5.512516 -1.9560417 -1.0050712 1065353216
4.3695307 -1.6271559 -1.8498831 1086324736
4.9020596 -1.7831546 -1.8236408 1065353216
16.207703 -5.0639668 0.66929805 1065353216
4.9343648 -1.7945628 -1.6952111 0
17.526814 -5.4558034 1.4389569 1065353216
5.1439438 -1.8582897 -1.58167 1065353216
14.220501 -4.5021791 1.3774606 1107558400
14.193635 -4.5041041 1.8617564 1090519040
14.120937 -4.4901514 2.3391683 1099956224
3.6172953 -1.4240035 -1.874406 1082130432
5.0303221 -1.8427882 -1.166099 1088421888
3.945312 -1.5223854 -1.8647827 1082130432
5.3737531 -1.9466673 -1.0121889 1065353216
4.3538976 -1.6456065 -1.847975 1086324736
14.384117 -4.624126 -0.041628141 1065353216
4.8985219 -1.8092375 -1.8242667 1073741824
14.3469 -4.6229711 0.43482146 1073741824
14.328463 -4.6249032 0.91583979 1065353216
14.214657 -4.5983133 1.3816582 1107558400
14.183888 -4.5988946 1.8658057 1092616192
14.112992 -4.5849562 2.3443444 1099431936
3.6051142 -1.4377592 -1.8723354 1082130432
4.8905411 -1.8285835 -1.1685075 1077936128
3.9398313 -1.5406691 -1.8647827 1082130432
5.2391539 -1.9365797 -1.0190972 1065353216
4.3456688 -1.6661683 -1.8475934 1086324736
14.314797 -4.7024426 -0.045462865 1065353216
4.8758998 -1.82956 -1.8217636 1073741824
14.258765 -4.69525 0.42702183 1082130432
14.255735 -4.7017274 0.90833104 1073741824
14.209979 -4.6951122 1.3862377 1095761920
14.203942 -4.7006407 1.8770534 1082130432
14.09696 -4.6775637 2.3474503 1100480512
3.6002326 -1.45367 -1.8723354 1082130432
4.7723379 -1.8184117 -1.1705319 1091567616
3.9360838 -1.5594933 -1.8652326 1082130432
5.1318016 -1.9323248 -1.0245402 1065353216
4.3468356 -1.6890547 -1.8491199 1086324736
14.351526 -4.8132272 -0.039536376 1065353216
4.8495898 -1.8478252 -1.818635 1082130432
14.409681 -4.8389001 0.44993326 1065353216
4.7979598 -1.8343612 -1.6805868 0
14.185844 -4.7861562 1.3870009 1102053376
14.189035 -4.79456 1.8802027 1090519040
4.7376795 -1.8220329 -1.2960496 0
14.093861 -4.7719626 2.3541796 1099431936
3.6064124 -1.4726626 -1.8754412 1082130432
4.7018919 -1.8224378 -1.1716838 1092616192
3.9193497 -1.5737057 -1.8625332 1082130432
5.0092645 -1.9224577 -1.0308205 1077936128
4.3383117 -1.7095405 -1.8487383 1086324736
14.456389 -4.9442744 -0.027334472 1065353216
4.8192382 -1.8651892 -1.8148805 1073741824
14.380794 -4.9301524 0.44993326 1065353216
4.6770554 -1.8216227 -1.6659625 1065353216
4.6374135 -1.811465 -1.5380921 1065353216
14.195434 -4.8856277 1.3946334 1100480512
14.179008 -4.8902578 1.8847016 1090519040
4.6256065 -1.8114866 -1.2941298 1082130432
14.093022 -4.8699226 2.3619442 1099431936
3.5976136 -1.4873849 -1.874406 1082130432
4.641067 -1.8286325 -1.1726611 1090519040
3.9264793 -1.5960394 -1.8656825 1082130432
4.8718691 -1.9059745 -1.0379382 1073741824
4.3333812 -1.7311722 -1.8491199 1086324736
4.8338699 -1.8969469 -1.818635 1073741824
4.6656961 -1.8437676 -1.665475 1077936128
4.6090798 -1.8277227 -1.5361748 1077936128
14.190462 -4.9833779 1.3995942 1106247680
14.173825 -4.9878383 1.8905503 1086324736
4.595305 -1.8269876 -1.2937109 1086324736
14.098776 -4.9704857 2.3717792 1099956224
3.6033809 -1.5069109 -1.8775119 1082130432
4.5879107 -1.8365636 -1.1734989 1093664768
3.9130914 -1.6117212 -1.8638829 1082130432
4.8068657 -1.9117078 -1.0410783 1073741824
4.3264337 -1.7521603 -1.8491199 1086324736
4.8487711 -1.9277785 -0.90830475 1088421888
4.8294983 -1.9226815 -1.8192607 1073741824
4.8463278 -1.9296974 -0.77729112 1086324736
4.6391377 -1.8607495 -1.6630375 1077936128
4.8621702 -1.9370806 -0.64224762 1073741824
4.609005 -1.8531756 -1.536872 1082130432
4.9644094 -1.9764334 -0.34636304 1065353216
4.5725269 -1.8446777 -1.2934318 1091567616
3.583391 -1.5178145 -1.8733708 1082130432
4.5556211 -1.8509198 -1.1739526 1095761920
3.9291158 -1.637342 -1.8692816 1082130432
4.7211719 -1.9094775 -1.0453699 1077936128
4.3156247 -1.7718278 -1.8483566 1086324736
4.7669358 -1.9271568 -0.9151029 1092616192
4.8137274 -1.9445646 -1.8180093 1073741824
4.7872944 -1.9368403 -0.78387207 1093664768
4.6444182 -1.8883888 -1.6647438 1077936128
4.8089457 -1.946322 -0.64975649 1093664768
4.8073483 -1.9478124 -0.51727295 1084227584
4.8286476 -1.9578977 -0.37740627 1095761920
4.5326533 -1.8562222 -1.2928383 1091567616
4.8487577 -1.9669144 -0.23401077 1077936128
3.5779512 -1.5335718 -1.8733708 1082130432
4.5308433 -1.8675184 -1.1742667 1095761920
3.9173143 -1.6535802 -1.867932 1082130432
4.6846938 -1.9232686 -1.04694 1086324736
4.3139524 -1.7946379 -1.8495015 1086324736
4.7116065 -1.9346828 -0.91946071 1094713344
4.8276448 -1.9767518 -1.8217636 1073741824
4.733953 -1.945194 -0.78972179 1094713344
4.6494746 -1.9161531 -1.6664499 1065353216
4.7594924 -1.9561924 -0.65663958 1097859072
4.5030365 -1.8671492 -1.528505 1106771968
4.7581439 -1.957739 -0.52566856 1088421888
4.8017316 -1.9758435 -0.38190529 1099431936
4.5116305 -1.873933 -1.2925941 1092616192
4.7418132 -1.9566789 -0.26196328 1084227584
3.57604 -1.5505897 -1.874406 1082130432
4.5210557 -1.8892087 -1.1743016 1073741824
3.9090836 -1.6710093 -1.8674821 1082130432
4.6387887 -1.933242 -1.0490334 1090519040
4.3139548 -1.8181379 -1.851028 1086324736
4.6769724 -1.9488918 -0.92190105 1099956224
4.8301263 -2.0051887 -1.8236408 1073741824
4.6787987 -1.9521906 -0.79581529 1098907648
4.6561718 -1.9447163 -1.6683998 1077936128
4.7193666 -1.9687767 -0.66195834 1097859072
4.5026331 -1.8920202 -1.5292022 1106771968
4.7237477 -1.9723649 -0.53101122 1093664768
4.7490783 -1.9842001 -0.39270297 1103626240
4.4961596 -1.8934423 -1.2924544 1092616192
4.7532635 -1.9877428 -0.25626925 1086324736
3.5885203 -1.5729158 -1.8795824 1082130432
3.9007366 -1.6883664 -1.8670322 1082130432
4.5910339 -1.9419461 -1.0512315 1091567616
4.3100882 -1.8403387 -1.8517913 1086324736
4.6404352 -1.9619899 -0.92451572 1102577664
4.8249626 -2.0309987 -1.8242667 1082130432
4.6255774 -1.9591621 -0.80166501 1100480512
4.6402726 -1.9652141 -1.6674249 1065353216
4.6829414 -1.9822257 -0.66665143 1099956224
4.4947624 -1.913631 -1.5292022 1106771968
4.6837893 -1.9845352 -0.53749871 1097859072
4.7076654 -1.9953452 -0.40080121 1104674816
4.4880757 -1.9155613 -1.2924544 1092616192
4.7427025 -2.0109859 -0.25678691 1086324736
3.5718343 -1.5846597 -1.8764765 1082130432
4.538722 -1.9457635 -1.1736734 1065353216
3.9032259 -1.7097448 -1.8692816 1082130432
4.5641122 -1.9571673 -1.0522783 1097859072
4.2933788 -1.8572026 -1.8498831 1086324736
4.6001487 -1.9732399 -0.92747903 1103101952
4.8161383 -2.0548017 -1.8242667 1084227584
4.6005187 -1.975335 -0.80385864 1101529088
5.67242 -2.3790264 -1.8039186 0
4.639317 -1.9918649 -0.67259592 1100480512
4.4790769 -1.9329377 -1.528505 1106771968
4.6566906 -2.0010459 -0.5413149 1098907648
4.6715131 -2.0086267 -0.40754971 1103626240
4.4611278 -1.9305642 -1.2921053 1092616192
4.708714 -2.0246756 -0.26403382 1091567616
3.5606611 -1.5978808 -1.8749236 1077936128
4.5041089 -1.9582142 -1.174162 1065353216
3.894789 -1.7265857 -1.8688318 1082130432
4.5462503 -1.976202 -1.0528016 1099956224
4.2837181 -1.8772079 -1.8495015 1086324736
4.5675282 -1.9862672 -0.92974508 1103626240
4.8069196 -2.0791523 -1.8242667 1082130432
4.5770302 -1.9925008 -0.80580854 1101529088
5.6167183 -2.3915451 -1.7980689 0
4.6084108 -2.0064914 -0.67635036 1102577664
4.459558 -1.9506513 -1.5274591 1107558400
4.6279144 -2.0159593 -0.54551268 1099431936
4.6426153 -2.0242667 -0.41249868 1104674816
4.4492631 -1.9504554 -1.2920356 1092616192
4.6726708 -2.0378516 -0.2717984 1092616192
3.5564635 -1.6141772 -1.8754412 1082130432
4.503027 -1.9832885 -1.1740224 1065353216
3.8915162 -1.7459257 -1.8697315 1082130432
4.5357261 -1.9979451 -1.0529063 1099956224
4.2848983 -1.9014111 -1.8514096 1086324736
4.5458012 -2.003814 -0.93096524 1105723392
4.8232913 -2.113498 -1.8286468 1084227584
5.6199183 -2.4272621 -1.8000188 0
4.5921764 -2.0265131 -0.67760181 1102053376
4.4399452 -1.9681519 -1.5264133 1107558400
4.6043501 -2.0332618 -0.54856563 1101529088
4.6227322 -2.0431297 -0.41519806 1104674816
4.4351993 -1.9700516 -1.2919308 1088421888
4.6491933 -2.0555401 -0.27593949 1095761920
3.5503511 -1.6297452 -1.8754412 1082130432
4.459003 -1.9914321 -1.1746856 1088421888
3.8917201 -1.7667077 -1.8715312 1082130432
4.5324793 -2.0225518 -1.0525923 1104150528
4.2858834 -1.9256868 -1.8533176 1086324736
4.5313921 -2.0240667 -0.93148822 1106247680
4.8063226 -2.1349707 -1.8273953 1082130432
5.6007066 -2.4542685 -1.7990438 1065353216
4.4297085 -1.9885947 -1.526239 1107820544
4.5825281 -2.0510273 -0.55123699 1097859072
4.6102118 -2.0641057 -0.41609791 1106247680
4.419158 -1.9887657 -1.2917912 1088421888
4.632803 -2.0758445 -0.27801004 1094713344
3.5495033 -1.6474426 -1.8769941 1077936128
4.4504561 -2.0127451 -1.1746856 1091567616
3.8718929 -1.7794867 -1.8683819 1084227584
4.5126143 -2.0398605 -1.0532203 1103101952
4.2741494 -1.9443473 -1.8525544 1086324736
4.529779 -2.0494289 -0.93079096 1107296256
4.8041101 -2.1616223 -1.8286468 1082130432
5.5702953 -2.4765992 -1.7966064 1065353216
4.4228053 -2.0110028 -1.5264133 1107820544
4.5847001 -2.0803783 -0.42014697 1098907648
4.4141116 -2.0118604 -1.2918611 1088421888
4.6201019 -2.096874 -0.27904531 1094713344
3.5522478 -1.6662575 -1.8795824 1082130432
4.447084 -2.0368357 -1.1745808 1091567616
3.8738081 -1.800529 -1.8706313 1084227584
4.4905877 -2.0567489 -1.0539529 1105199104
4.2530189 -1.9596571 -1.8498831 1086324736
4.511632 -2.0674107 -0.9316625 1107558400
4.808744 -2.1919386 -1.8311497 1073741824
5.5691123 -2.5107749 -1.7980689 0
4.4267778 -2.0379672 -1.5276334 1108344832
4.3941302 -2.0287828 -1.2916516 1092616192
3.5349267 -1.6776832 -1.8764765 1082130432
4.4416857 -2.0601611 -1.1745111 1092616192
3.873383 -1.8217796 -1.872431 1084227584
4.4774508 -2.0778241 -1.0541624 1103101952
4.2462864 -1.9808422 -1.8502647 1086324736
4.4947577 -2.0870864 -0.93235976 1107558400
4.7910347 -2.2137613 -1.8298982 1073741824
4.4088669 -2.0539494 -1.6450009 0
4.3993464 -2.0518146 -1.5258904 1108344832
4.3887835 -2.051755 -1.2917215 1092616192
3.5319226 -1.6946214 -1.8775119 1082130432
4.4248571 -2.0792818 -1.1746507 1092616192
3.8711853 -1.8418621 -1.8737807 1084227584
4.4809222 -2.105335 -1.0534296 1104674816
4.2481971 -2.0063851 -1.8525544 1086324736
4.478003 -2.1060364 -0.93305701 1108082688
4.795217 -2.2441924 -1.8324012 1082130432
4.4069533 -2.0786057 -1.6459758 0
4.3846726 -2.0708818 -1.5253674 1106771968
4.3832655 -2.0747128 -1.2917912 1088421888
3.5323284 -1.7131144 -1.8795824 1082130432
4.4175453 -2.1011622 -1.1746157 1092616192
3.8474119 -1.8525817 -1.8697315 1084227584
4.4734287 -2.1275966 -1.0533249 1106247680
4.2503405 -2.030997 -1.8548441 1086324736
4.4757314 -2.1312304 -0.93235976 1107558400
4.7668581 -2.2598403 -1.8292725 1082130432
4.4048452 -2.1032989 -1.6469508 0
4.4063435 -2.1058857 -1.5283307 1103626240
4.3757472 -2.0968499 -1.2918261 1088421888
3.5292265 -1.7296991 -1.8806176 1082130432
4.4189701 -2.1276164 -1.1744063 1094713344
3.8380451 -1.8689407 -1.8692816 1084227584
4.4673576 -2.1511807 -1.0531156 1106771968
4.2377172 -2.0497949 -1.8540809 1086324736
4.4789634 -2.1583502 -0.93113959 1106247680
4.7706313 -2.2903008 -1.8317754 1084227584
4.3556905 -2.106369 -1.6415886 0
4.3719544 -2.1200583 -1.2919308 1088421888
3.536381 -1.7514632 -1.8847587 1082130432
4.4022145 -2.1453464 -1.174546 1093664768
3.8336961 -1.8880795 -1.8701814 1084227584
4.4522691 -2.1700668 -1.0534296 1104674816
4.2287788 -2.0695989 -1.8540809 1084227584
4.4581523 -2.175386 -0.93218541 1104150528
4.7564497 -2.3120871 -1.8311497 1084227584
4.3569565 -2.1324534 -1.643051 0
4.3909311 -2.1499186 -1.5286794 0
4.3532038 -2.137135 -1.2917563 1088421888
3.515461 -1.7600162 -1.8806176 1084227584
4.4087067 -2.1743624 -1.1742318 1092616192
3.8382456 -1.9108716 -1.8733308 1082130432
4.4458795 -2.1935523 -1.0532203 1101004800
4.2159085 -2.0881975 -1.8533176 1086324736
4.4501615 -2.197526 -0.93201113 1103101952
4.7526011 -2.339345 -1.8324012 1084227584
4.3438525 -2.1513941 -1.6425636 0
4.3632464 -2.1623518 -1.5269362 1065353216
4.3545384 -2.1628025 -1.2919657 1088421888
3.5065846 -1.7744691 -1.8801 1088421888
4.388062 -2.190217 -1.1744412 1092616192
3.8406317 -1.9333843 -1.8760302 1082130432
4.443182 -2.2181816 -1.0528016 1101004800
4.2067099 -2.1078522 -1.8533176 1084227584
4.7381086 -2.3609579 -1.8317754 1084227584
4.3447351 -2.1775439 -1.644026 0
4.3568883 -2.1852455 -1.5272849 1065353216
4.3445764 -2.1839292 -1.2919657 1088421888
3.4995363 -1.7893053 -1.8801 1088421888
4.3743024 -2.2098441 -1.1745111 1092616192
3.8254662 -1.947118 -1.8742306 1077936128
4.4472356 -2.2468407 -1.0519642 1101004800
4.2219071 -2.1398556 -1.8586603 1084227584
4.444222 -2.2474046 -0.93061662 1065353216
4.7231951 -2.3830426 -1.8311497 1084227584
4.3170428 -2.1894534 -1.6415886 0
4.379323 -2.2214472 -1.5304224 1065353216
4.3455215 -2.209686 -1.2921752 1088421888
3.5113025 -1.8137872 -1.885794 1088421888
4.3786478 -2.2375925 -1.1742318 1092616192
3.8065181 -1.9594216 -1.8715312 1077936128
4.4297729 -2.2645597 -1.0523829 1100480512
4.214119 -2.160414 -1.8590419 1084227584
4.4444041 -2.2744102 -0.92957079 1065353216
4.7243948 -2.4122272 -1.8333398 1086324736
4.3389735 -2.2260575 -1.6459758 0
4.3617978 -2.2392311 -1.5297252 0
4.591692 -2.3535979 -0.52566856 1073741824
4.5876746 -2.3537452 -0.39360276 1086324736
4.3334394 -2.2298632 -1.2921402 1090519040
3.5022566 -1.8277947 -1.8852764 1088421888
4.3753276 -2.2624428 -1.1740922 1093664768
3.8086753 -1.9814976 -1.8742306 1077936128
4.4155226 -2.2844288 -1.0525923 1101004800
4.1971478 -2.1770594 -1.8575155 1084227584
4.4696002 -2.3133824 -0.92608452 1065353216
4.7144508 -2.43681 -1.8336527 1084227584
4.3394904 -2.2518661 -1.6474383 0
4.6104813 -2.3885641 -0.65163368 1086324736
4.4047642 -2.2871351 -1.5349545 0
4.6122818 -2.3916156 -0.51879942 1084227584
